.33443230000000002, .6116933, .0030839999999999756, .0000492165029597841
.33443230000000002, .6116933, .01975439999999995, .00014938000950101316
.33443230000000002, .6116933, .055770399999999998, .00026900397686388782
.33443230000000002, .6116933, .11270170000000002, .00038910268845886436
.33443230000000002, .6116933, .18944850000000002, .00049648983376104233
.33443230000000002, .6116933, .28287810000000002, .00058077604052026073
.33443230000000002, .6116933, .3883067, .00063441113857690427
.33443230000000002, .6116933, .5, -.002241978478203606
.33443230000000002, .6116933, .6116933, .00063441113857690427
.33443230000000002, .6116933, .71712189999999998, .00058077604052026073
.33443230000000002, .6116933, .81055149999999998, .00049648983376104233
.33443230000000002, .6116933, .88729829999999998, .00038910268845886436
.33443230000000002, .6116933, .9442296, .00026900397686388782
.33443230000000002, .6116933, .98024560000000005, .00014938000950101316
.33443230000000002, .6116933, .99691600000000002, .0000492165029597841
.33443230000000002, .66556769999999998, .5, .0027915266580099177
.33443230000000002, .71712189999999998, .0030839999999999756, .00004505558616350181
.33443230000000002, .71712189999999998, .01975439999999995, .00013675095718761995
.33443230000000002, .71712189999999998, .055770399999999998, .00024626154092701765
.33443230000000002, .71712189999999998, .11270170000000002, .00035620673253916233
.33443230000000002, .71712189999999998, .18944850000000002, .00045451503335379293
.33443230000000002, .71712189999999998, .28287810000000002, .00053167542108263177
.33443230000000002, .71712189999999998, .3883067, .00058077604052026094
.33443230000000002, .71712189999999998, .5, -.0020524372607580903
.33443230000000002, .71712189999999998, .6116933, .00058077604052026094
.33443230000000002, .71712189999999998, .71712189999999998, .00053167542108263177
.33443230000000002, .71712189999999998, .81055149999999998, .00045451503335379293
.33443230000000002, .71712189999999998, .88729829999999998, .00035620673253916233
.33443230000000002, .71712189999999998, .9442296, .00024626154092701765
.33443230000000002, .71712189999999998, .98024560000000005, .00013675095718761995
.33443230000000002, .71712189999999998, .99691600000000002, .00004505558616350181
.33443230000000002, .76565989999999995, .5, .002473391874639927
.33443230000000002, .81055149999999998, .0030839999999999756, .00003851681013611482
.33443230000000002, .81055149999999998, .01975439999999995, .00011690471931301179
.33443230000000002, .81055149999999998, .055770399999999998, .00021052237521208161
.33443230000000002, .81055149999999998, .11270170000000002, .00030451156570527211
.33443230000000002, .81055149999999998, .18944850000000002, .00038855269089539489
.33443230000000002, .81055149999999998, .28287810000000002, .00045451503335379434
.33443230000000002, .81055149999999998, .3883067, .00049648983376104233
.33443230000000002, .81055149999999998, .5, -.0017545712145534676
.33443230000000002, .81055149999999998, .6116933, .00049648983376104233
.33443230000000002, .81055149999999998, .71712189999999998, .00045451503335379434
.33443230000000002, .81055149999999998, .81055149999999998, .00038855269089539489
.33443230000000002, .81055149999999998, .88729829999999998, .00030451156570527211
.33443230000000002, .81055149999999998, .9442296, .00021052237521208161
.33443230000000002, .81055149999999998, .98024560000000005, .00011690471931301179
.33443230000000002, .81055149999999998, .99691600000000002, .00003851681013611482
.33443230000000002, .85124809999999995, .5, .0020309629890199405
.33443230000000002, .88729829999999998, .0030839999999999756, .00003018590383068156
.33443230000000002, .88729829999999998, .01975439999999995, .0000916190775421098
.33443230000000002, .88729829999999998, .055770399999999998, .00016498791436521591
.33443230000000002, .88729829999999998, .11270170000000002, .0002386479255479629
.33443230000000002, .88729829999999998, .18944850000000002, .00030451156570526604
.33443230000000002, .88729829999999998, .28287810000000002, .00035620673253916623
.33443230000000002, .88729829999999998, .3883067, .00038910268845886089
.33443230000000002, .88729829999999998, .5, -.0013750649198686468
.33443230000000002, .88729829999999998, .6116933, .00038910268845886089
.33443230000000002, .88729829999999998, .71712189999999998, .00035620673253916623
.33443230000000002, .88729829999999998, .81055149999999998, .00030451156570526604
.33443230000000002, .88729829999999998, .88729829999999998, .0002386479255479629
.33443230000000002, .88729829999999998, .9442296, .00016498791436521591
.33443230000000002, .88729829999999998, .98024560000000005, .0000916190775421098
.33443230000000002, .88729829999999998, .99691600000000002, .00003018590383068156
.33443230000000002, .91836300000000004, .5, .0015052557340199558
.33443230000000002, .9442296, .0030839999999999756, .00002086885651663306
.33443230000000002, .9442296, .01975439999999995, .00006334033905816554
.33443230000000002, .9442296, .055770399999999998, .00011406347582564574
.33443230000000002, .9442296, .11270170000000002, .0001649879143652197
.33443230000000002, .9442296, .18944850000000002, .00021052237521208163
.33443230000000002, .9442296, .28287810000000002, .00024626154092701678
.33443230000000002, .9442296, .3883067, .00026900397686388782
.33443230000000002, .9442296, .5, -.00095066826167731729
.33443230000000002, .9442296, .6116933, .00026900397686388782
.33443230000000002, .9442296, .71712189999999998, .00024626154092701678
.33443230000000002, .9442296, .81055149999999998, .00021052237521208163
.33443230000000002, .9442296, .88729829999999998, .0001649879143652197
.33443230000000002, .9442296, .9442296, .00011406347582564574
.33443230000000002, .9442296, .98024560000000005, .00006334033905816554
.33443230000000002, .9442296, .99691600000000002, .00002086885651663306
.33443230000000002, .9648274, .5, .00094989753313997217
.33443230000000002, .98024560000000005, .0030839999999999756, .00001158863902709992
.33443230000000002, .98024560000000005, .01975439999999995, .00003517338502060149
.33443230000000002, .98024560000000005, .055770399999999998, .00006334033905816562
.33443230000000002, .98024560000000005, .11270170000000002, .00009161907754211408
.33443230000000002, .98024560000000005, .18944850000000002, .00011690471931301206
.33443230000000002, .98024560000000005, .28287810000000002, .00013675095718761432
.33443230000000002, .98024560000000005, .3883067, .00014938000950101376
.33443230000000002, .98024560000000005, .5, -.00052774327067925755
.33443230000000002, .98024560000000005, .6116933, .00014938000950101376
.33443230000000002, .98024560000000005, .71712189999999998, .00013675095718761432
.33443230000000002, .98024560000000005, .81055149999999998, .00011690471931301206
.33443230000000002, .98024560000000005, .88729829999999998, .00009161907754211408
.33443230000000002, .98024560000000005, .9442296, .00006334033905816562
.33443230000000002, .98024560000000005, .98024560000000005, .00003517338502060149
.33443230000000002, .98024560000000005, .99691600000000002, .00001158863902709992
.33443230000000002, .99076560000000002, .5, .00043446138269998723
.33443230000000002, .99691600000000002, .0030839999999999756, 3.818129941766157e-06
.33443230000000002, .99691600000000002, .01975439999999995, .00001158863902709992
.33443230000000002, .99691600000000002, .055770399999999998, .00002086885651663306
.33443230000000002, .99691600000000002, .11270170000000002, .00003018590383068188
.33443230000000002, .99691600000000002, .18944850000000002, .00003851681013611482
.33443230000000002, .99691600000000002, .28287810000000002, .0000450555861635019
.33443230000000002, .99691600000000002, .3883067, .0000492165029597841
.33443230000000002, .99691600000000002, .5, -.00017568023338116864
.33443230000000002, .99691600000000002, .6116933, .0000492165029597841
.33443230000000002, .99691600000000002, .71712189999999998, .0000450555861635019
.33443230000000002, .99691600000000002, .81055149999999998, .00003851681013611482
.33443230000000002, .99691600000000002, .88729829999999998, .00003018590383068188
.33443230000000002, .99691600000000002, .9442296, .00002086885651663306
.33443230000000002, .99691600000000002, .98024560000000005, .00001158863902709992
.33443230000000002, .99691600000000002, .99691600000000002, 3.818129941766157e-06
.33443230000000002, .99954909999999997, .5, .00006722712675999802
.36112509999999998, .5, .5, .026952699999999191
.3883067, .00045090000000003183, .0030839999999999756, 1.185259712160509e-06
.3883067, .00045090000000003183, .01975439999999995, 3.597454033017761e-06
.3883067, .00045090000000003183, .055770399999999998, 6.478306198395584e-06
.3883067, .00045090000000003183, .11270170000000002, 9.370591423378592e-06
.3883067, .00045090000000003183, .18944850000000002, .00001195674950605661
.3883067, .00045090000000003183, .28287810000000002, .00001398657769690067
.3883067, .00045090000000003183, .3883067, .00001527824851992249
.3883067, .00045090000000003183, .5, -.00005399259609966617
.3883067, .00045090000000003183, .6116933, .00001527824851992249
.3883067, .00045090000000003183, .71712189999999998, .00001398657769690067
.3883067, .00045090000000003183, .81055149999999998, .00001195674950605661
.3883067, .00045090000000003183, .88729829999999998, 9.370591423378592e-06
.3883067, .00045090000000003183, .9442296, 6.478306198395584e-06
.3883067, .00045090000000003183, .98024560000000005, 3.597454033017761e-06
.3883067, .00045090000000003183, .99691600000000002, 1.185259712160509e-06
.3883067, .0030839999999999756, .00045090000000003183, 1.185259712160509e-06
.3883067, .0030839999999999756, .0030839999999999756, -4.021117465002268e-06
.3883067, .0030839999999999756, .009234399999999976, 7.659848014064654e-06
.3883067, .0030839999999999756, .01975439999999995, -.00001210821936238467
.3883067, .0030839999999999756, .035172599999999998, .00001674733594863952
.3883067, .0030839999999999756, .055770399999999998, -.0000218099234009215
.3883067, .0030839999999999756, .08163699999999996, .00002653867663274951
.3883067, .0030839999999999756, .11270170000000002, -.00003154648451368179
.3883067, .0030839999999999756, .14875190000000005, .00003580725108732124
.3883067, .0030839999999999756, .18944850000000002, -.00004025301177628436
.3883067, .0030839999999999756, .23434010000000005, .00004360757156648633
.3883067, .0030839999999999756, .28287810000000002, -.00004708657928751581
.3883067, .0030839999999999756, .33443230000000002, .0000492165029597841
.3883067, .0030839999999999756, .3883067, -.00005143500892796312
.3883067, .0030839999999999756, .44375549999999997, .00005214472042691437
.3883067, .0030839999999999756, .5, .00018176884993126438
.3883067, .0030839999999999756, .55624450000000003, .00005214472042691437
.3883067, .0030839999999999756, .6116933, -.00005143500892796312
.3883067, .0030839999999999756, .66556769999999998, .0000492165029597841
.3883067, .0030839999999999756, .71712189999999998, -.00004708657928751581
.3883067, .0030839999999999756, .76565989999999995, .00004360757156648633
.3883067, .0030839999999999756, .81055149999999998, -.00004025301177628436
.3883067, .0030839999999999756, .85124809999999995, .00003580725108732124
.3883067, .0030839999999999756, .88729829999999998, -.00003154648451368179
.3883067, .0030839999999999756, .91836300000000004, .00002653867663274951
.3883067, .0030839999999999756, .9442296, -.0000218099234009215
.3883067, .0030839999999999756, .9648274, .00001674733594863952
.3883067, .0030839999999999756, .98024560000000005, -.00001210821936238467
.3883067, .0030839999999999756, .99076560000000002, 7.659848014064654e-06
.3883067, .0030839999999999756, .99691600000000002, -4.021117465002268e-06
.3883067, .0030839999999999756, .99954909999999997, 1.185259712160509e-06
.3883067, .009234399999999976, .0030839999999999756, 7.659848014064654e-06
.3883067, .009234399999999976, .01975439999999995, .00002324887182765249
.3883067, .009234399999999976, .055770399999999998, .00004186663931893028
.3883067, .009234399999999976, .11270170000000002, .00006055829399123125
.3883067, .009234399999999976, .18944850000000002, .00007727157433849691
.3883067, .009234399999999976, .28287810000000002, .00009038952247847725
.3883067, .009234399999999976, .3883067, .00009873706191395998
.3883067, .009234399999999976, .5, -.00034893203216563792
.3883067, .009234399999999976, .6116933, .00009873706191395998
.3883067, .009234399999999976, .71712189999999998, .00009038952247847725
.3883067, .009234399999999976, .81055149999999998, .00007727157433849691
.3883067, .009234399999999976, .88729829999999998, .00006055829399123125
.3883067, .009234399999999976, .9442296, .00004186663931893028
.3883067, .009234399999999976, .98024560000000005, .00002324887182765249
.3883067, .009234399999999976, .99691600000000002, 7.659848014064654e-06
.3883067, .01975439999999995, .00045090000000003183, 3.597454033017754e-06
.3883067, .01975439999999995, .0030839999999999756, -.00001210821936238383
.3883067, .01975439999999995, .009234399999999976, .00002324887182765244
.3883067, .01975439999999995, .01975439999999995, -.00003645744283633766
.3883067, .01975439999999995, .035172599999999998, .00005083086063974608
.3883067, .01975439999999995, .055770399999999998, -.00006566907943042651
.3883067, .01975439999999995, .08163699999999996, .00008054915585497413
.3883067, .01975439999999995, .11270170000000002, -.00009498558182571982
.3883067, .01975439999999995, .14875190000000005, .00010868077140710108
.3883067, .01975439999999995, .18944850000000002, -.00012120069457656506
.3883067, .01975439999999995, .23434010000000005, .00013235599978000622
.3883067, .01975439999999995, .28287810000000002, -.00014177637668322967
.3883067, .01975439999999995, .33443230000000002, .00014938000950101338
.3883067, .01975439999999995, .3883067, -.00015486937579398217
.3883067, .01975439999999995, .44375549999999997, .00015826762090685368
.3883067, .01975439999999995, .5, .00054730093207666012
.3883067, .01975439999999995, .55624450000000003, .00015826762090685368
.3883067, .01975439999999995, .6116933, -.00015486937579398217
.3883067, .01975439999999995, .66556769999999998, .00014938000950101338
.3883067, .01975439999999995, .71712189999999998, -.00014177637668322967
.3883067, .01975439999999995, .76565989999999995, .00013235599978000622
.3883067, .01975439999999995, .81055149999999998, -.00012120069457656506
.3883067, .01975439999999995, .85124809999999995, .00010868077140710108
.3883067, .01975439999999995, .88729829999999998, -.00009498558182571982
.3883067, .01975439999999995, .91836300000000004, .00008054915585497413
.3883067, .01975439999999995, .9442296, -.00006566907943042651
.3883067, .01975439999999995, .9648274, .00005083086063974608
.3883067, .01975439999999995, .98024560000000005, -.00003645744283633766
.3883067, .01975439999999995, .99076560000000002, .00002324887182765244
.3883067, .01975439999999995, .99691600000000002, -.00001210821936238383
.3883067, .01975439999999995, .99954909999999997, 3.597454033017754e-06
.3883067, .035172599999999998, .0030839999999999756, .00001674733594863952
.3883067, .035172599999999998, .01975439999999995, .00005083086063974605
.3883067, .035172599999999998, .055770399999999998, .00009153636892366776
.3883067, .035172599999999998, .11270170000000002, .00013240342263781373
.3883067, .035172599999999998, .18944850000000002, .00016894499895440848
.3883067, .035172599999999998, .28287810000000002, .00019762581403764455
.3883067, .035172599999999998, .3883067, .00021587670452709727
.3883067, .035172599999999998, .5, -.00076289790021806167
.3883067, .035172599999999998, .6116933, .00021587670452709727
.3883067, .035172599999999998, .71712189999999998, .00019762581403764455
.3883067, .035172599999999998, .81055149999999998, .00016894499895440848
.3883067, .035172599999999998, .88729829999999998, .00013240342263781373
.3883067, .035172599999999998, .9442296, .00009153636892366776
.3883067, .035172599999999998, .98024560000000005, .00005083086063974605
.3883067, .035172599999999998, .99691600000000002, .00001674733594863952
.3883067, .055770399999999998, .00045090000000003183, 6.478306198395584e-06
.3883067, .055770399999999998, .0030839999999999756, -.00002180992340092072
.3883067, .055770399999999998, .009234399999999976, .00004186663931893028
.3883067, .055770399999999998, .01975439999999995, -.00006566907943043437
.3883067, .055770399999999998, .035172599999999998, .00009153636892366776
.3883067, .055770399999999998, .055770399999999998, -.00011828662101921365
.3883067, .055770399999999998, .08163699999999996, .00014505316561698407
.3883067, .055770399999999998, .11270170000000002, -.00017109305739984517
.3883067, .055770399999999998, .14875190000000005, .00019571266473207059
.3883067, .055770399999999998, .18944850000000002, -.00021831310584298366
.3883067, .055770399999999998, .23434010000000005, .00023834708821849379
.3883067, .055770399999999998, .28287810000000002, -.00025537511339611288
.3883067, .055770399999999998, .33443230000000002, .00026900397686388782
.3883067, .055770399999999998, .3883067, -.00027895891642921875
.3883067, .055770399999999998, .44375549999999997, .00028500881459939283
.3883067, .055770399999999998, .5, .00098582740577385017
.3883067, .055770399999999998, .55624450000000003, .00028500881459939283
.3883067, .055770399999999998, .6116933, -.00027895891642921875
.3883067, .055770399999999998, .66556769999999998, .00026900397686388782
.3883067, .055770399999999998, .71712189999999998, -.00025537511339611288
.3883067, .055770399999999998, .76565989999999995, .00023834708821849379
.3883067, .055770399999999998, .81055149999999998, -.00021831310584298366
.3883067, .055770399999999998, .85124809999999995, .00019571266473207059
.3883067, .055770399999999998, .88729829999999998, -.00017109305739984517
.3883067, .055770399999999998, .91836300000000004, .00014505316561698407
.3883067, .055770399999999998, .9442296, -.00011828662101921365
.3883067, .055770399999999998, .9648274, .00009153636892366776
.3883067, .055770399999999998, .98024560000000005, -.00006566907943043437
.3883067, .055770399999999998, .99076560000000002, .00004186663931893028
.3883067, .055770399999999998, .99691600000000002, -.00002180992340092072
.3883067, .055770399999999998, .99954909999999997, 6.478306198395584e-06
.3883067, .08163699999999996, .0030839999999999756, .00002653867663274951
.3883067, .08163699999999996, .01975439999999995, .00008054915585497395
.3883067, .08163699999999996, .055770399999999998, .00014505316561698407
.3883067, .08163699999999996, .11270170000000002, .00020981316844841878
.3883067, .08163699999999996, .18944850000000002, .00026771880075263403
.3883067, .08163699999999996, .28287810000000002, .00031316787273590226
.3883067, .08163699999999996, .3883067, .00034208915803433503
.3883067, .08163699999999996, .5, -.0012089266459920345
.3883067, .08163699999999996, .6116933, .00034208915803433503
.3883067, .08163699999999996, .71712189999999998, .00031316787273590226
.3883067, .08163699999999996, .81055149999999998, .00026771880075263403
.3883067, .08163699999999996, .88729829999999998, .00020981316844841878
.3883067, .08163699999999996, .9442296, .00014505316561698407
.3883067, .08163699999999996, .98024560000000005, .00008054915585497395
.3883067, .08163699999999996, .99691600000000002, .00002653867663274951
.3883067, .11270170000000002, .00045090000000003183, 9.370591423378416e-06
.3883067, .11270170000000002, .0030839999999999756, -.00003154648451367611
.3883067, .11270170000000002, .009234399999999976, .00006055829399123041
.3883067, .11270170000000002, .01975439999999995, -.00009498558182573689
.3883067, .11270170000000002, .035172599999999998, .00013240342263781286
.3883067, .11270170000000002, .055770399999999998, -.0001710930573998559
.3883067, .11270170000000002, .08163699999999996, .00020981316844841704
.3883067, .11270170000000002, .11270170000000002, -.00024747375507267919
.3883067, .11270170000000002, .14875190000000005, .00028308995614302769
.3883067, .11270170000000002, .18944850000000002, -.00031577414600488651
.3883067, .11270170000000002, .23434010000000005, .00034475881692664988
.3883067, .11270170000000002, .28287810000000002, -.0003693816641645266
.3883067, .11270170000000002, .33443230000000002, .00038910268845886262
.3883067, .11270170000000002, .3883067, -.00040349393255966387
.3883067, .11270170000000002, .44375549999999997, .00041225299821946238
.3883067, .11270170000000002, .5, .0014259281684648015
.3883067, .11270170000000002, .55624450000000003, .00041225299821946238
.3883067, .11270170000000002, .6116933, -.00040349393255966387
.3883067, .11270170000000002, .66556769999999998, .00038910268845886262
.3883067, .11270170000000002, .71712189999999998, -.0003693816641645266
.3883067, .11270170000000002, .76565989999999995, .00034475881692664988
.3883067, .11270170000000002, .81055149999999998, -.00031577414600488651
.3883067, .11270170000000002, .85124809999999995, .00028308995614302769
.3883067, .11270170000000002, .88729829999999998, -.00024747375507267919
.3883067, .11270170000000002, .91836300000000004, .00020981316844841704
.3883067, .11270170000000002, .9442296, -.0001710930573998559
.3883067, .11270170000000002, .9648274, .00013240342263781286
.3883067, .11270170000000002, .98024560000000005, -.00009498558182573689
.3883067, .11270170000000002, .99076560000000002, .00006055829399123041
.3883067, .11270170000000002, .99691600000000002, -.00003154648451367611
.3883067, .11270170000000002, .99954909999999997, 9.370591423378416e-06
.3883067, .14875190000000005, .0030839999999999756, .00003580725108732123
.3883067, .14875190000000005, .01975439999999995, .00010868077140710125
.3883067, .14875190000000005, .055770399999999998, .00019571266473207059
.3883067, .14875190000000005, .11270170000000002, .0002830899561430278
.3883067, .14875190000000005, .18944850000000002, .00036121900319311127
.3883067, .14875190000000005, .28287810000000002, .00042254106362254188
.3883067, .14875190000000005, .3883067, .00046156304421260353
.3883067, .14875190000000005, .5, -.0016311416186356148
.3883067, .14875190000000005, .6116933, .00046156304421260353
.3883067, .14875190000000005, .71712189999999998, .00042254106362254188
.3883067, .14875190000000005, .81055149999999998, .00036121900319311127
.3883067, .14875190000000005, .88729829999999998, .0002830899561430278
.3883067, .14875190000000005, .9442296, .00019571266473207059
.3883067, .14875190000000005, .98024560000000005, .00010868077140710125
.3883067, .14875190000000005, .99691600000000002, .00003580725108732123
.3883067, .18944850000000002, .00045090000000003183, .00001195674950605661
.3883067, .18944850000000002, .0030839999999999756, -.00004025301177628424
.3883067, .18944850000000002, .009234399999999976, .00007727157433849691
.3883067, .18944850000000002, .01975439999999995, -.00012120069457655219
.3883067, .18944850000000002, .035172599999999998, .00016894499895440848
.3883067, .18944850000000002, .055770399999999998, -.00021831310584298014
.3883067, .18944850000000002, .08163699999999996, .00026771880075263403
.3883067, .18944850000000002, .11270170000000002, -.00031577414600489036
.3883067, .18944850000000002, .14875190000000005, .00036121900319311133
.3883067, .18944850000000002, .18944850000000002, -.00040292479198418806
.3883067, .18944850000000002, .23434010000000005, .00043990764592638444
.3883067, .18944850000000002, .28287810000000002, -.00047132747274846706
.3883067, .18944850000000002, .33443230000000002, .00049648983376104233
.3883067, .18944850000000002, .3883067, -.00051485440116099573
.3883067, .18944850000000002, .44375549999999997, .00052602931982854387
.3883067, .18944850000000002, .5, .0018194707132673945
.3883067, .18944850000000002, .55624450000000003, .00052602931982854387
.3883067, .18944850000000002, .6116933, -.00051485440116099573
.3883067, .18944850000000002, .66556769999999998, .00049648983376104233
.3883067, .18944850000000002, .71712189999999998, -.00047132747274846706
.3883067, .18944850000000002, .76565989999999995, .00043990764592638444
.3883067, .18944850000000002, .81055149999999998, -.00040292479198418806
.3883067, .18944850000000002, .85124809999999995, .00036121900319311133
.3883067, .18944850000000002, .88729829999999998, -.00031577414600489036
.3883067, .18944850000000002, .91836300000000004, .00026771880075263403
.3883067, .18944850000000002, .9442296, -.00021831310584298014
.3883067, .18944850000000002, .9648274, .00016894499895440848
.3883067, .18944850000000002, .98024560000000005, -.00012120069457655219
.3883067, .18944850000000002, .99076560000000002, .00007727157433849691
.3883067, .18944850000000002, .99691600000000002, -.00004025301177628424
.3883067, .18944850000000002, .99954909999999997, .00001195674950605661
.3883067, .23434010000000005, .0030839999999999756, .00004360757156648633
.3883067, .23434010000000005, .01975439999999995, .00013235599978000595
.3883067, .23434010000000005, .055770399999999998, .00023834708821849382
.3883067, .23434010000000005, .11270170000000002, .00034475881692665292
.3883067, .23434010000000005, .18944850000000002, .00043990764592638444
.3883067, .23434010000000005, .28287810000000002, .00051458822199907989
.3883067, .23434010000000005, .3883067, .00056211082592914463
.3883067, .23434010000000005, .5, -.0019864726475726131
.3883067, .23434010000000005, .6116933, .00056211082592914463
.3883067, .23434010000000005, .71712189999999998, .00051458822199907989
.3883067, .23434010000000005, .81055149999999998, .00043990764592638444
.3883067, .23434010000000005, .88729829999999998, .00034475881692665292
.3883067, .23434010000000005, .9442296, .00023834708821849382
.3883067, .23434010000000005, .98024560000000005, .00013235599978000595
.3883067, .23434010000000005, .99691600000000002, .00004360757156648633
.3883067, .28287810000000002, .00045090000000003183, .0000139865776969007
.3883067, .28287810000000002, .0030839999999999756, -.00004708657928751239
.3883067, .28287810000000002, .009234399999999976, .0000903895224784771
.3883067, .28287810000000002, .01975439999999995, -.00014177637668323661
.3883067, .28287810000000002, .035172599999999998, .00019762581403764417
.3883067, .28287810000000002, .055770399999999998, -.00025537511339611082
.3883067, .28287810000000002, .08163699999999996, .00031316787273590041
.3883067, .28287810000000002, .11270170000000002, -.00036938166416449679
.3883067, .28287810000000002, .14875190000000005, .00042254106362254258
.3883067, .28287810000000002, .18944850000000002, -.00047132747274848181
.3883067, .28287810000000002, .23434010000000005, .00051458822199907989
.3883067, .28287810000000002, .28287810000000002, -.00055134256066312001
.3883067, .28287810000000002, .33443230000000002, .00058077604052025791
.3883067, .28287810000000002, .3883067, -.00060225885465538416
.3883067, .28287810000000002, .44375549999999997, .00061533027424409247
.3883067, .28287810000000002, .5, .0021283538518471995
.3883067, .28287810000000002, .55624450000000003, .00061533027424409247
.3883067, .28287810000000002, .6116933, -.00060225885465538416
.3883067, .28287810000000002, .66556769999999998, .00058077604052025791
.3883067, .28287810000000002, .71712189999999998, -.00055134256066312001
.3883067, .28287810000000002, .76565989999999995, .00051458822199907989
.3883067, .28287810000000002, .81055149999999998, -.00047132747274848181
.3883067, .28287810000000002, .85124809999999995, .00042254106362254258
.3883067, .28287810000000002, .88729829999999998, -.00036938166416449679
.3883067, .28287810000000002, .91836300000000004, .00031316787273590041
.3883067, .28287810000000002, .9442296, -.00025537511339611082
.3883067, .28287810000000002, .9648274, .00019762581403764417
.3883067, .28287810000000002, .98024560000000005, -.00014177637668323661
.3883067, .28287810000000002, .99076560000000002, .0000903895224784771
.3883067, .28287810000000002, .99691600000000002, -.00004708657928751239
.3883067, .28287810000000002, .99954909999999997, .0000139865776969007
.3883067, .33443230000000002, .0030839999999999756, .0000492165029597841
.3883067, .33443230000000002, .01975439999999995, .00014938000950101381
.3883067, .33443230000000002, .055770399999999998, .00026900397686388782
.3883067, .33443230000000002, .11270170000000002, .00038910268845886425
.3883067, .33443230000000002, .18944850000000002, .00049648983376104233
.3883067, .33443230000000002, .28287810000000002, .00058077604052025899
.3883067, .33443230000000002, .3883067, .00063441113857690427
.3883067, .33443230000000002, .5, -.0022419784782036255
.3883067, .33443230000000002, .6116933, .00063441113857690427
.3883067, .33443230000000002, .71712189999999998, .00058077604052025899
.3883067, .33443230000000002, .81055149999999998, .00049648983376104233
.3883067, .33443230000000002, .88729829999999998, .00038910268845886425
.3883067, .33443230000000002, .9442296, .00026900397686388782
.3883067, .33443230000000002, .98024560000000005, .00014938000950101381
.3883067, .33443230000000002, .99691600000000002, .0000492165029597841
.3883067, .3883067, .00045090000000003183, .00001527824851992249
.3883067, .3883067, .0030839999999999756, -.00005143500892796243
.3883067, .3883067, .009234399999999976, .00009873706191395996
.3883067, .3883067, .01975439999999995, -.00015486937579398363
.3883067, .3883067, .035172599999999998, .00021587670452709727
.3883067, .3883067, .055770399999999998, -.00027895891642922471
.3883067, .3883067, .08163699999999996, .00034208915803433503
.3883067, .3883067, .11270170000000002, -.00040349393255966875
.3883067, .3883067, .14875190000000005, .00046156304421260353
.3883067, .3883067, .18944850000000002, -.00051485440116098358
.3883067, .3883067, .23434010000000005, .00056211082592914463
.3883067, .3883067, .28287810000000002, -.00060225885465532952
.3883067, .3883067, .33443230000000002, .00063441113857690427
.3883067, .3883067, .3883067, -.00065787725071340356
.3883067, .3883067, .44375549999999997, .00067215648141121464
.3883067, .3883067, .5, .002324906590870748
.3883067, .3883067, .55624450000000003, .00067215648141121464
.3883067, .3883067, .6116933, -.00065787725071340356
.3883067, .3883067, .66556769999999998, .00063441113857690427
.3883067, .3883067, .71712189999999998, -.00060225885465532952
.3883067, .3883067, .76565989999999995, .00056211082592914463
.3883067, .3883067, .81055149999999998, -.00051485440116098358
.3883067, .3883067, .85124809999999995, .00046156304421260353
.3883067, .3883067, .88729829999999998, -.00040349393255966875
.3883067, .3883067, .91836300000000004, .00034208915803433503
.3883067, .3883067, .9442296, -.00027895891642922471
.3883067, .3883067, .9648274, .00021587670452709727
.3883067, .3883067, .98024560000000005, -.00015486937579398363
.3883067, .3883067, .99076560000000002, .00009873706191395996
.3883067, .3883067, .99691600000000002, -.00005143500892796243
.3883067, .3883067, .99954909999999997, .00001527824851992249
.3883067, .44375549999999997, .0030839999999999756, .00005214472042691437
.3883067, .44375549999999997, .01975439999999995, .00015826762090685362
.3883067, .44375549999999997, .055770399999999998, .00028500881459939288
.3883067, .44375549999999997, .11270170000000002, .00041225299821946802
.3883067, .44375549999999997, .18944850000000002, .00052602931982854387
.3883067, .44375549999999997, .28287810000000002, .00061533027424409508
.3883067, .44375549999999997, .3883067, .00067215648141121464
.3883067, .44375549999999997, .5, -.0023753687059930302
.3883067, .44375549999999997, .6116933, .00067215648141121464
.3883067, .44375549999999997, .71712189999999998, .00061533027424409508
.3883067, .44375549999999997, .81055149999999998, .00052602931982854387
.3883067, .44375549999999997, .88729829999999998, .00041225299821946802
.3883067, .44375549999999997, .9442296, .00028500881459939288
.3883067, .44375549999999997, .98024560000000005, .00015826762090685362
.3883067, .44375549999999997, .99691600000000002, .00005214472042691437
.3883067, .5, .00045090000000003183, -.00005399259609966632
.3883067, .5, .0030839999999999756, .00018176884993124611
.3883067, .5, .009234399999999976, -.00034893203216563613
.3883067, .5, .01975439999999995, .00054730093207661979
.3883067, .5, .035172599999999998, -.00076289790021806471
.3883067, .5, .055770399999999998, .00098582740577381959
.3883067, .5, .08163699999999996, -.0012089266459920432
.3883067, .5, .11270170000000002, .0014259281684645846
.3883067, .5, .14875190000000005, -.0016311416186356273
.3883067, .5, .18944850000000002, .0018194707132672937
.3883067, .5, .23434010000000005, -.001986472647572598
.3883067, .5, .28287810000000002, .0021283538518470329
.3883067, .5, .33443230000000002, -.002241978478203603
.3883067, .5, .3883067, .0023249065908707402
.3883067, .5, .44375549999999997, -.0023753687059930462
.3883067, .5, .5, -.021913408172781777
.3883067, .5, .55624450000000003, -.0023753687059930462
.3883067, .5, .6116933, .0023249065908707402
.3883067, .5, .66556769999999998, -.002241978478203603
.3883067, .5, .71712189999999998, .0021283538518470329
.3883067, .5, .76565989999999995, -.001986472647572598
.3883067, .5, .81055149999999998, .0018194707132672937
.3883067, .5, .85124809999999995, -.0016311416186356273
.3883067, .5, .88729829999999998, .0014259281684645846
.3883067, .5, .91836300000000004, -.0012089266459920432
.3883067, .5, .9442296, .00098582740577381959
.3883067, .5, .9648274, -.00076289790021806471
.3883067, .5, .98024560000000005, .00054730093207661979
.3883067, .5, .99076560000000002, -.00034893203216563613
.3883067, .5, .99691600000000002, .00018176884993124611
.3883067, .5, .99954909999999997, -.00005399259609966632
.3883067, .55624450000000003, .0030839999999999756, .00005214472042691437
.3883067, .55624450000000003, .01975439999999995, .00015826762090685362
.3883067, .55624450000000003, .055770399999999998, .00028500881459939288
.3883067, .55624450000000003, .11270170000000002, .00041225299821946802
.3883067, .55624450000000003, .18944850000000002, .00052602931982854387
.3883067, .55624450000000003, .28287810000000002, .00061533027424409508
.3883067, .55624450000000003, .3883067, .00067215648141121464
.3883067, .55624450000000003, .5, -.0023753687059930302
.3883067, .55624450000000003, .6116933, .00067215648141121464
.3883067, .55624450000000003, .71712189999999998, .00061533027424409508
.3883067, .55624450000000003, .81055149999999998, .00052602931982854387
.3883067, .55624450000000003, .88729829999999998, .00041225299821946802
.3883067, .55624450000000003, .9442296, .00028500881459939288
.3883067, .55624450000000003, .98024560000000005, .00015826762090685362
.3883067, .55624450000000003, .99691600000000002, .00005214472042691437
.3883067, .6116933, .00045090000000003183, .00001527824851992249
.3883067, .6116933, .0030839999999999756, -.00005143500892796243
.3883067, .6116933, .009234399999999976, .00009873706191395996
.3883067, .6116933, .01975439999999995, -.00015486937579398363
.3883067, .6116933, .035172599999999998, .00021587670452709727
.3883067, .6116933, .055770399999999998, -.00027895891642922471
.3883067, .6116933, .08163699999999996, .00034208915803433503
.3883067, .6116933, .11270170000000002, -.00040349393255966875
.3883067, .6116933, .14875190000000005, .00046156304421260353
.3883067, .6116933, .18944850000000002, -.00051485440116098358
.3883067, .6116933, .23434010000000005, .00056211082592914463
.3883067, .6116933, .28287810000000002, -.00060225885465532952
.3883067, .6116933, .33443230000000002, .00063441113857690427
.3883067, .6116933, .3883067, -.00065787725071340356
.3883067, .6116933, .44375549999999997, .00067215648141121464
.3883067, .6116933, .5, .002324906590870748
.3883067, .6116933, .55624450000000003, .00067215648141121464
.3883067, .6116933, .6116933, -.00065787725071340356
.3883067, .6116933, .66556769999999998, .00063441113857690427
.3883067, .6116933, .71712189999999998, -.00060225885465532952
.3883067, .6116933, .76565989999999995, .00056211082592914463
.3883067, .6116933, .81055149999999998, -.00051485440116098358
.3883067, .6116933, .85124809999999995, .00046156304421260353
.3883067, .6116933, .88729829999999998, -.00040349393255966875
.3883067, .6116933, .91836300000000004, .00034208915803433503
.3883067, .6116933, .9442296, -.00027895891642922471
.3883067, .6116933, .9648274, .00021587670452709727
.3883067, .6116933, .98024560000000005, -.00015486937579398363
.3883067, .6116933, .99076560000000002, .00009873706191395996
.3883067, .6116933, .99691600000000002, -.00005143500892796243
.3883067, .6116933, .99954909999999997, .00001527824851992249
.3883067, .66556769999999998, .0030839999999999756, .0000492165029597841
.3883067, .66556769999999998, .01975439999999995, .00014938000950101381
.3883067, .66556769999999998, .055770399999999998, .00026900397686388782
.3883067, .66556769999999998, .11270170000000002, .00038910268845886425
.3883067, .66556769999999998, .18944850000000002, .00049648983376104233
.3883067, .66556769999999998, .28287810000000002, .00058077604052025899
.3883067, .66556769999999998, .3883067, .00063441113857690427
.3883067, .66556769999999998, .5, -.0022419784782036255
.3883067, .66556769999999998, .6116933, .00063441113857690427
.3883067, .66556769999999998, .71712189999999998, .00058077604052025899
.3883067, .66556769999999998, .81055149999999998, .00049648983376104233
.3883067, .66556769999999998, .88729829999999998, .00038910268845886425
.3883067, .66556769999999998, .9442296, .00026900397686388782
.3883067, .66556769999999998, .98024560000000005, .00014938000950101381
.3883067, .66556769999999998, .99691600000000002, .0000492165029597841
.3883067, .71712189999999998, .00045090000000003183, .0000139865776969007
.3883067, .71712189999999998, .0030839999999999756, -.00004708657928751239
.3883067, .71712189999999998, .009234399999999976, .0000903895224784771
.3883067, .71712189999999998, .01975439999999995, -.00014177637668323661
.3883067, .71712189999999998, .035172599999999998, .00019762581403764417
.3883067, .71712189999999998, .055770399999999998, -.00025537511339611082
.3883067, .71712189999999998, .08163699999999996, .00031316787273590041
.3883067, .71712189999999998, .11270170000000002, -.00036938166416449679
.3883067, .71712189999999998, .14875190000000005, .00042254106362254258
.3883067, .71712189999999998, .18944850000000002, -.00047132747274848181
.3883067, .71712189999999998, .23434010000000005, .00051458822199907989
.3883067, .71712189999999998, .28287810000000002, -.00055134256066312001
.3883067, .71712189999999998, .33443230000000002, .00058077604052025791
.3883067, .71712189999999998, .3883067, -.00060225885465538416
.3883067, .71712189999999998, .44375549999999997, .00061533027424409247
.3883067, .71712189999999998, .5, .0021283538518471995
.3883067, .71712189999999998, .55624450000000003, .00061533027424409247
.3883067, .71712189999999998, .6116933, -.00060225885465538416
.3883067, .71712189999999998, .66556769999999998, .00058077604052025791
.3883067, .71712189999999998, .71712189999999998, -.00055134256066312001
.3883067, .71712189999999998, .76565989999999995, .00051458822199907989
.3883067, .71712189999999998, .81055149999999998, -.00047132747274848181
.3883067, .71712189999999998, .85124809999999995, .00042254106362254258
.3883067, .71712189999999998, .88729829999999998, -.00036938166416449679
.3883067, .71712189999999998, .91836300000000004, .00031316787273590041
.3883067, .71712189999999998, .9442296, -.00025537511339611082
.3883067, .71712189999999998, .9648274, .00019762581403764417
.3883067, .71712189999999998, .98024560000000005, -.00014177637668323661
.3883067, .71712189999999998, .99076560000000002, .0000903895224784771
.3883067, .71712189999999998, .99691600000000002, -.00004708657928751239
.3883067, .71712189999999998, .99954909999999997, .0000139865776969007
.3883067, .76565989999999995, .0030839999999999756, .00004360757156648633
.3883067, .76565989999999995, .01975439999999995, .00013235599978000595
.3883067, .76565989999999995, .055770399999999998, .00023834708821849382
.3883067, .76565989999999995, .11270170000000002, .00034475881692665292
.3883067, .76565989999999995, .18944850000000002, .00043990764592638444
.3883067, .76565989999999995, .28287810000000002, .00051458822199907989
.3883067, .76565989999999995, .3883067, .00056211082592914463
.3883067, .76565989999999995, .5, -.0019864726475726131
.3883067, .76565989999999995, .6116933, .00056211082592914463
.3883067, .76565989999999995, .71712189999999998, .00051458822199907989
.3883067, .76565989999999995, .81055149999999998, .00043990764592638444
.3883067, .76565989999999995, .88729829999999998, .00034475881692665292
.3883067, .76565989999999995, .9442296, .00023834708821849382
.3883067, .76565989999999995, .98024560000000005, .00013235599978000595
.3883067, .76565989999999995, .99691600000000002, .00004360757156648633
.3883067, .81055149999999998, .00045090000000003183, .00001195674950605661
.3883067, .81055149999999998, .0030839999999999756, -.00004025301177628424
.3883067, .81055149999999998, .009234399999999976, .00007727157433849691
.3883067, .81055149999999998, .01975439999999995, -.00012120069457655219
.3883067, .81055149999999998, .035172599999999998, .00016894499895440848
.3883067, .81055149999999998, .055770399999999998, -.00021831310584298014
.3883067, .81055149999999998, .08163699999999996, .00026771880075263403
.3883067, .81055149999999998, .11270170000000002, -.00031577414600489036
.3883067, .81055149999999998, .14875190000000005, .00036121900319311133
.3883067, .81055149999999998, .18944850000000002, -.00040292479198418806
.3883067, .81055149999999998, .23434010000000005, .00043990764592638444
.3883067, .81055149999999998, .28287810000000002, -.00047132747274846706
.3883067, .81055149999999998, .33443230000000002, .00049648983376104233
.3883067, .81055149999999998, .3883067, -.00051485440116099573
.3883067, .81055149999999998, .44375549999999997, .00052602931982854387
.3883067, .81055149999999998, .5, .0018194707132673945
.3883067, .81055149999999998, .55624450000000003, .00052602931982854387
.3883067, .81055149999999998, .6116933, -.00051485440116099573
.3883067, .81055149999999998, .66556769999999998, .00049648983376104233
.3883067, .81055149999999998, .71712189999999998, -.00047132747274846706
.3883067, .81055149999999998, .76565989999999995, .00043990764592638444
.3883067, .81055149999999998, .81055149999999998, -.00040292479198418806
.3883067, .81055149999999998, .85124809999999995, .00036121900319311133
.3883067, .81055149999999998, .88729829999999998, -.00031577414600489036
.3883067, .81055149999999998, .91836300000000004, .00026771880075263403
.3883067, .81055149999999998, .9442296, -.00021831310584298014
.3883067, .81055149999999998, .9648274, .00016894499895440848
.3883067, .81055149999999998, .98024560000000005, -.00012120069457655219
.3883067, .81055149999999998, .99076560000000002, .00007727157433849691
.3883067, .81055149999999998, .99691600000000002, -.00004025301177628424
.3883067, .81055149999999998, .99954909999999997, .00001195674950605661
.3883067, .85124809999999995, .0030839999999999756, .00003580725108732123
.3883067, .85124809999999995, .01975439999999995, .00010868077140710125
.3883067, .85124809999999995, .055770399999999998, .00019571266473207059
.3883067, .85124809999999995, .11270170000000002, .0002830899561430278
.3883067, .85124809999999995, .18944850000000002, .00036121900319311127
.3883067, .85124809999999995, .28287810000000002, .00042254106362254188
.3883067, .85124809999999995, .3883067, .00046156304421260353
.3883067, .85124809999999995, .5, -.0016311416186356148
.3883067, .85124809999999995, .6116933, .00046156304421260353
.3883067, .85124809999999995, .71712189999999998, .00042254106362254188
.3883067, .85124809999999995, .81055149999999998, .00036121900319311127
.3883067, .85124809999999995, .88729829999999998, .0002830899561430278
.3883067, .85124809999999995, .9442296, .00019571266473207059
.3883067, .85124809999999995, .98024560000000005, .00010868077140710125
.3883067, .85124809999999995, .99691600000000002, .00003580725108732123
.3883067, .88729829999999998, .00045090000000003183, 9.370591423378416e-06
.3883067, .88729829999999998, .0030839999999999756, -.00003154648451367611
.3883067, .88729829999999998, .009234399999999976, .00006055829399123041
.3883067, .88729829999999998, .01975439999999995, -.00009498558182573689
.3883067, .88729829999999998, .035172599999999998, .00013240342263781286
.3883067, .88729829999999998, .055770399999999998, -.0001710930573998559
.3883067, .88729829999999998, .08163699999999996, .00020981316844841704
.3883067, .88729829999999998, .11270170000000002, -.00024747375507267919
.3883067, .88729829999999998, .14875190000000005, .00028308995614302769
.3883067, .88729829999999998, .18944850000000002, -.00031577414600488651
.3883067, .88729829999999998, .23434010000000005, .00034475881692664988
.3883067, .88729829999999998, .28287810000000002, -.0003693816641645266
.3883067, .88729829999999998, .33443230000000002, .00038910268845886262
.3883067, .88729829999999998, .3883067, -.00040349393255966387
.3883067, .88729829999999998, .44375549999999997, .00041225299821946238
.3883067, .88729829999999998, .5, .0014259281684648015
.3883067, .88729829999999998, .55624450000000003, .00041225299821946238
.3883067, .88729829999999998, .6116933, -.00040349393255966387
.3883067, .88729829999999998, .66556769999999998, .00038910268845886262
.3883067, .88729829999999998, .71712189999999998, -.0003693816641645266
.3883067, .88729829999999998, .76565989999999995, .00034475881692664988
.3883067, .88729829999999998, .81055149999999998, -.00031577414600488651
.3883067, .88729829999999998, .85124809999999995, .00028308995614302769
.3883067, .88729829999999998, .88729829999999998, -.00024747375507267919
.3883067, .88729829999999998, .91836300000000004, .00020981316844841704
.3883067, .88729829999999998, .9442296, -.0001710930573998559
.3883067, .88729829999999998, .9648274, .00013240342263781286
.3883067, .88729829999999998, .98024560000000005, -.00009498558182573689
.3883067, .88729829999999998, .99076560000000002, .00006055829399123041
.3883067, .88729829999999998, .99691600000000002, -.00003154648451367611
.3883067, .88729829999999998, .99954909999999997, 9.370591423378416e-06
.3883067, .91836300000000004, .0030839999999999756, .00002653867663274951
.3883067, .91836300000000004, .01975439999999995, .00008054915585497395
.3883067, .91836300000000004, .055770399999999998, .00014505316561698407
.3883067, .91836300000000004, .11270170000000002, .00020981316844841878
.3883067, .91836300000000004, .18944850000000002, .00026771880075263403
.3883067, .91836300000000004, .28287810000000002, .00031316787273590226
.3883067, .91836300000000004, .3883067, .00034208915803433503
.3883067, .91836300000000004, .5, -.0012089266459920345
.3883067, .91836300000000004, .6116933, .00034208915803433503
.3883067, .91836300000000004, .71712189999999998, .00031316787273590226
.3883067, .91836300000000004, .81055149999999998, .00026771880075263403
.3883067, .91836300000000004, .88729829999999998, .00020981316844841878
.3883067, .91836300000000004, .9442296, .00014505316561698407
.3883067, .91836300000000004, .98024560000000005, .00008054915585497395
