.71712189999999998, .5, .98024560000000005, .0011496262792394594
.71712189999999998, .5, .99076560000000002, -.0004533769412437912
.71712189999999998, .5, .99691600000000002, -.00009405076790954537
.71712189999999998, .5, .99954909999999997, -.00007015405813433073
.71712189999999998, .55624450000000003, .01975439999999995, .00058789544248991131
.71712189999999998, .55624450000000003, .11270170000000002, .0015082037333978416
.71712189999999998, .55624450000000003, .28287810000000002, .0022548086218236469
.71712189999999998, .55624450000000003, .5, -.0030863815843027399
.71712189999999998, .55624450000000003, .71712189999999998, .0022548086218236469
.71712189999999998, .55624450000000003, .88729829999999998, .0015082037333978416
.71712189999999998, .55624450000000003, .98024560000000005, .00058789544248991131
.71712189999999998, .6116933, .0030839999999999756, .00009344427722696324
.71712189999999998, .6116933, .01975439999999995, -.00029178782126197276
.71712189999999998, .6116933, .055770399999999998, .00051074092382720991
.71712189999999998, .6116933, .11270170000000002, -.00073739880115529163
.71712189999999998, .6116933, .18944850000000002, .00094265400579649817
.71712189999999998, .6116933, .28287810000000002, -.0011042247512114312
.71712189999999998, .6116933, .3883067, .0012045165085681573
.71712189999999998, .6116933, .5, -.0012358941625001227
.71712189999999998, .6116933, .6116933, .0012045165085681573
.71712189999999998, .6116933, .71712189999999998, -.0011042247512114312
.71712189999999998, .6116933, .81055149999999998, .00094265400579649817
.71712189999999998, .6116933, .88729829999999998, -.00073739880115529163
.71712189999999998, .6116933, .9442296, .00051074092382720991
.71712189999999998, .6116933, .98024560000000005, -.00029178782126197276
.71712189999999998, .6116933, .99691600000000002, .00009344427722696324
.71712189999999998, .66556769999999998, .01975439999999995, .00055488182789094039
.71712189999999998, .66556769999999998, .11270170000000002, .0014235096650440468
.71712189999999998, .66556769999999998, .28287810000000002, .0021281885165204831
.71712189999999998, .66556769999999998, .5, -.0029130640098408689
.71712189999999998, .66556769999999998, .71712189999999998, .0021281885165204831
.71712189999999998, .66556769999999998, .88729829999999998, .0014235096650440468
.71712189999999998, .66556769999999998, .98024560000000005, .00055488182789094039
.71712189999999998, .71712189999999998, .00045090000000003183, .00005125224176483086
.71712189999999998, .71712189999999998, .0030839999999999756, -.00008699909988067823
.71712189999999998, .71712189999999998, .009234399999999976, .00033122224460248675
.71712189999999998, .71712189999999998, .01975439999999995, -.001313402901104276
.71712189999999998, .71712189999999998, .035172599999999998, .00072417758078685026
.71712189999999998, .71712189999999998, .055770399999999998, -.00046823117217010884
.71712189999999998, .71712189999999998, .08163699999999996, .0011475684670164087
.71712189999999998, .71712189999999998, .11270170000000002, -.0033799798497911393
.71712189999999998, .71712189999999998, .14875190000000005, .0015483542305813783
.71712189999999998, .71712189999999998, .18944850000000002, -.00086416572759673207
.71712189999999998, .71712189999999998, .23434010000000005, .0018856506956005077
.71712189999999998, .71712189999999998, .28287810000000002, -.0050515338060515974
.71712189999999998, .71712189999999998, .33443230000000002, .0021281885165204831
.71712189999999998, .71712189999999998, .3883067, -.0011042247512114264
.71712189999999998, .71712189999999998, .44375549999999997, .0022548086218236469
.71712189999999998, .71712189999999998, .5, .0043946193867892341
.71712189999999998, .71712189999999998, .55624450000000003, .0022548086218236469
.71712189999999998, .71712189999999998, .6116933, -.0011042247512114264
.71712189999999998, .71712189999999998, .66556769999999998, .0021281885165204831
.71712189999999998, .71712189999999998, .71712189999999998, -.0050515338060515974
.71712189999999998, .71712189999999998, .76565989999999995, .0018856506956005077
.71712189999999998, .71712189999999998, .81055149999999998, -.00086416572759673207
.71712189999999998, .71712189999999998, .85124809999999995, .0015483542305813783
.71712189999999998, .71712189999999998, .88729829999999998, -.0033799798497911393
.71712189999999998, .71712189999999998, .91836300000000004, .0011475684670164087
.71712189999999998, .71712189999999998, .9442296, -.00046823117217010884
.71712189999999998, .71712189999999998, .9648274, .00072417758078685026
.71712189999999998, .71712189999999998, .98024560000000005, -.001313402901104276
.71712189999999998, .71712189999999998, .99076560000000002, .00033122224460248675
.71712189999999998, .71712189999999998, .99691600000000002, -.00008699909988067823
.71712189999999998, .71712189999999998, .99954909999999997, .00005125224176483086
.71712189999999998, .76565989999999995, .01975439999999995, .0004916450289137545
.71712189999999998, .76565989999999995, .11270170000000002, .0012612801776005255
.71712189999999998, .76565989999999995, .28287810000000002, .0018856506956005077
.71712189999999998, .76565989999999995, .5, -.0025810782897495083
.71712189999999998, .76565989999999995, .71712189999999998, .0018856506956005077
.71712189999999998, .76565989999999995, .88729829999999998, .0012612801776005255
.71712189999999998, .76565989999999995, .98024560000000005, .0004916450289137545
.71712189999999998, .81055149999999998, .0030839999999999756, .00007312944373960055
.71712189999999998, .81055149999999998, .01975439999999995, -.00022835300022761118
.71712189999999998, .81055149999999998, .055770399999999998, .00039970558671897243
.71712189999999998, .81055149999999998, .11270170000000002, -.00057708792601343574
.71712189999999998, .81055149999999998, .18944850000000002, .00073772054456977348
.71712189999999998, .81055149999999998, .28287810000000002, -.0008641657275967247
.71712189999999998, .81055149999999998, .3883067, .00094265400579649796
.71712189999999998, .81055149999999998, .5, -.00096721014177409683
.71712189999999998, .81055149999999998, .6116933, .00094265400579649796
.71712189999999998, .81055149999999998, .71712189999999998, -.0008641657275967247
.71712189999999998, .81055149999999998, .81055149999999998, .00073772054456977348
.71712189999999998, .81055149999999998, .88729829999999998, -.00057708792601343574
.71712189999999998, .81055149999999998, .9442296, .00039970558671897243
.71712189999999998, .81055149999999998, .98024560000000005, -.00022835300022761118
.71712189999999998, .81055149999999998, .99691600000000002, .00007312944373960055
.71712189999999998, .85124809999999995, .01975439999999995, .00040370184267902792
.71712189999999998, .85124809999999995, .11270170000000002, .0010356682197252241
.71712189999999998, .85124809999999995, .28287810000000002, .0015483542305813783
.71712189999999998, .85124809999999995, .5, -.0021193869568312085
.71712189999999998, .85124809999999995, .71712189999999998, .0015483542305813783
.71712189999999998, .85124809999999995, .88729829999999998, .0010356682197252241
.71712189999999998, .85124809999999995, .98024560000000005, .00040370184267902792
.71712189999999998, .88729829999999998, .00045090000000003183, .00003428176636658806
.71712189999999998, .88729829999999998, .0030839999999999756, -.00005809925236047015
.71712189999999998, .88729829999999998, .009234399999999976, .00022154901354326767
.71712189999999998, .88729829999999998, .01975439999999995, -.0008788021736896868
.71712189999999998, .88729829999999998, .035172599999999998, .00048439025840800172
.71712189999999998, .88729829999999998, .055770399999999998, -.00031268373938871916
.71712189999999998, .88729829999999998, .08163699999999996, .00076758933309558448
.71712189999999998, .88729829999999998, .11270170000000002, -.0022615421379829888
.71712189999999998, .88729829999999998, .14875190000000005, .001035668219725222
.71712189999999998, .88729829999999998, .18944850000000002, -.00057708792601347868
.71712189999999998, .88729829999999998, .23434010000000005, .001261280177600525
.71712189999999998, .88729829999999998, .28287810000000002, -.0033799798497912126
.71712189999999998, .88729829999999998, .33443230000000002, .0014235096650440477
.71712189999999998, .88729829999999998, .3883067, -.00073739880115530399
.71712189999999998, .88729829999999998, .44375549999999997, .0015082037333978427
.71712189999999998, .88729829999999998, .5, .0029382500974516799
.71712189999999998, .88729829999999998, .55624450000000003, .0015082037333978427
.71712189999999998, .88729829999999998, .6116933, -.00073739880115530399
.71712189999999998, .88729829999999998, .66556769999999998, .0014235096650440477
.71712189999999998, .88729829999999998, .71712189999999998, -.0033799798497912126
.71712189999999998, .88729829999999998, .76565989999999995, .001261280177600525
.71712189999999998, .88729829999999998, .81055149999999998, -.00057708792601347868
.71712189999999998, .88729829999999998, .85124809999999995, .001035668219725222
.71712189999999998, .88729829999999998, .88729829999999998, -.0022615421379829888
.71712189999999998, .88729829999999998, .91836300000000004, .00076758933309558448
.71712189999999998, .88729829999999998, .9442296, -.00031268373938871916
.71712189999999998, .88729829999999998, .9648274, .00048439025840800172
.71712189999999998, .88729829999999998, .98024560000000005, -.0008788021736896868
.71712189999999998, .88729829999999998, .99076560000000002, .00022154901354326767
.71712189999999998, .88729829999999998, .99691600000000002, -.00005809925236047015
.71712189999999998, .88729829999999998, .99954909999999997, .00003428176636658806
.71712189999999998, .91836300000000004, .01975439999999995, .00029920511442715545
.71712189999999998, .91836300000000004, .11270170000000002, .00076758933309558448
.71712189999999998, .91836300000000004, .28287810000000002, .0011475684670164089
.71712189999999998, .91836300000000004, .5, -.0015707914849382664
.71712189999999998, .91836300000000004, .71712189999999998, .0011475684670164089
.71712189999999998, .91836300000000004, .88729829999999998, .00076758933309558448
.71712189999999998, .91836300000000004, .98024560000000005, .00029920511442715545
.71712189999999998, .9442296, .0030839999999999756, .00003962238469773903
.71712189999999998, .9442296, .01975439999999995, -.0001237285170889924
.71712189999999998, .9442296, .055770399999999998, .00021656514411907751
.71712189999999998, .9442296, .11270170000000002, -.00031268373938870474
.71712189999999998, .9442296, .18944850000000002, .00039970558671897113
.71712189999999998, .9442296, .28287810000000002, -.00046823117217009626
.71712189999999998, .9442296, .3883067, .00051074092382720883
.71712189999999998, .9442296, .5, -.00052402367033037073
.71712189999999998, .9442296, .6116933, .00051074092382720883
.71712189999999998, .9442296, .71712189999999998, -.00046823117217009626
.71712189999999998, .9442296, .81055149999999998, .00039970558671897113
.71712189999999998, .9442296, .88729829999999998, -.00031268373938870474
.71712189999999998, .9442296, .9442296, .00021656514411907751
.71712189999999998, .9442296, .98024560000000005, -.0001237285170889924
.71712189999999998, .9442296, .99691600000000002, .00003962238469773903
.71712189999999998, .9648274, .01975439999999995, .00018881456065820244
.71712189999999998, .9648274, .11270170000000002, .00048439025840800085
.71712189999999998, .9648274, .28287810000000002, .00072417758078685026
.71712189999999998, .9648274, .5, -.00099125412572608103
.71712189999999998, .9648274, .71712189999999998, .00072417758078685026
.71712189999999998, .9648274, .88729829999999998, .00048439025840800085
.71712189999999998, .9648274, .98024560000000005, .00018881456065820244
.71712189999999998, .98024560000000005, .00045090000000003183, .00001336297859574699
.71712189999999998, .98024560000000005, .0030839999999999756, -.00002298453457842085
.71712189999999998, .98024560000000005, .009234399999999976, .00008635945692614546
.71712189999999998, .98024560000000005, .01975439999999995, -.00034147061783960486
.71712189999999998, .98024560000000005, .035172599999999998, .00018881456065820247
.71712189999999998, .98024560000000005, .055770399999999998, -.00012372851708899126
.71712189999999998, .98024560000000005, .08163699999999996, .00029920511442715545
.71712189999999998, .98024560000000005, .11270170000000002, -.00087880217368971228
.71712189999999998, .98024560000000005, .14875190000000005, .00040370184267902792
.71712189999999998, .98024560000000005, .18944850000000002, -.00022835300022761232
.71712189999999998, .98024560000000005, .23434010000000005, .0004916450289137545
.71712189999999998, .98024560000000005, .28287810000000002, -.0013134029011042713
.71712189999999998, .98024560000000005, .33443230000000002, .00055488182789094039
.71712189999999998, .98024560000000005, .3883067, -.00029178782126196539
.71712189999999998, .98024560000000005, .44375549999999997, .00058789544248991131
.71712189999999998, .98024560000000005, .5, .0011496262792395062
.71712189999999998, .98024560000000005, .55624450000000003, .00058789544248991131
.71712189999999998, .98024560000000005, .6116933, -.00029178782126196539
.71712189999999998, .98024560000000005, .66556769999999998, .00055488182789094039
.71712189999999998, .98024560000000005, .71712189999999998, -.0013134029011042713
.71712189999999998, .98024560000000005, .76565989999999995, .0004916450289137545
.71712189999999998, .98024560000000005, .81055149999999998, -.00022835300022761232
.71712189999999998, .98024560000000005, .85124809999999995, .00040370184267902792
.71712189999999998, .98024560000000005, .88729829999999998, -.00087880217368971228
.71712189999999998, .98024560000000005, .91836300000000004, .00029920511442715545
.71712189999999998, .98024560000000005, .9442296, -.00012372851708899126
.71712189999999998, .98024560000000005, .9648274, .00018881456065820247
.71712189999999998, .98024560000000005, .98024560000000005, -.00034147061783960486
.71712189999999998, .98024560000000005, .99076560000000002, .00008635945692614546
.71712189999999998, .98024560000000005, .99691600000000002, -.00002298453457842085
.71712189999999998, .98024560000000005, .99954909999999997, .00001336297859574699
.71712189999999998, .99076560000000002, .01975439999999995, .00008635945692614546
.71712189999999998, .99076560000000002, .11270170000000002, .00022154901354326772
.71712189999999998, .99076560000000002, .28287810000000002, .00033122224460248681
.71712189999999998, .99076560000000002, .5, -.00045337694124379001
.71712189999999998, .99076560000000002, .71712189999999998, .00033122224460248681
.71712189999999998, .99076560000000002, .88729829999999998, .00022154901354326772
.71712189999999998, .99076560000000002, .98024560000000005, .00008635945692614546
.71712189999999998, .99691600000000002, .0030839999999999756, 7.249243065044665e-06
.71712189999999998, .99691600000000002, .01975439999999995, -.00002298453457842074
.71712189999999998, .99691600000000002, .055770399999999998, .00003962238469773911
.71712189999999998, .99691600000000002, .11270170000000002, -.00005809925236047348
.71712189999999998, .99691600000000002, .18944850000000002, .00007312944373960047
.71712189999999998, .99691600000000002, .28287810000000002, -.00008699909988067838
.71712189999999998, .99691600000000002, .3883067, .00009344427722696335
.71712189999999998, .99691600000000002, .5, -.00009405076790956323
.71712189999999998, .99691600000000002, .6116933, .00009344427722696335
.71712189999999998, .99691600000000002, .71712189999999998, -.00008699909988067838
.71712189999999998, .99691600000000002, .81055149999999998, .00007312944373960047
.71712189999999998, .99691600000000002, .88729829999999998, -.00005809925236047348
.71712189999999998, .99691600000000002, .9442296, .00003962238469773911
.71712189999999998, .99691600000000002, .98024560000000005, -.00002298453457842074
.71712189999999998, .99691600000000002, .99691600000000002, 7.249243065044665e-06
.71712189999999998, .99954909999999997, .01975439999999995, .00001336297859574699
.71712189999999998, .99954909999999997, .11270170000000002, .00003428176636658806
.71712189999999998, .99954909999999997, .28287810000000002, .00005125224176483086
.71712189999999998, .99954909999999997, .5, -.00007015405813433035
.71712189999999998, .99954909999999997, .71712189999999998, .00005125224176483086
.71712189999999998, .99954909999999997, .88729829999999998, .00003428176636658806
.71712189999999998, .99954909999999997, .98024560000000005, .00001336297859574699
.76565989999999995, .0030839999999999756, .5, .00039795773224000523
.76565989999999995, .01975439999999995, .01975439999999995, .00012818643188770943
.76565989999999995, .01975439999999995, .11270170000000002, .00032885312790515412
.76565989999999995, .01975439999999995, .28287810000000002, .00049164502891375439
.76565989999999995, .01975439999999995, .5, -.00068950339565321554
.76565989999999995, .01975439999999995, .71712189999999998, .00049164502891375439
.76565989999999995, .01975439999999995, .88729829999999998, .00032885312790515412
.76565989999999995, .01975439999999995, .98024560000000005, .00012818643188770943
.76565989999999995, .055770399999999998, .5, .0021751283849600284
.76565989999999995, .11270170000000002, .01975439999999995, .00032885312790515429
.76565989999999995, .11270170000000002, .11270170000000002, .00084364919235552943
.76565989999999995, .11270170000000002, .28287810000000002, .0012612801776005255
.76565989999999995, .11270170000000002, .5, -.0017213352923623859
.76565989999999995, .11270170000000002, .71712189999999998, .0012612801776005255
.76565989999999995, .11270170000000002, .88729829999999998, .00084364919235552943
.76565989999999995, .11270170000000002, .98024560000000005, .00032885312790515429
.76565989999999995, .18944850000000002, .5, .0040145470816000525
.76565989999999995, .28287810000000002, .01975439999999995, .0004916450289137545
.76565989999999995, .28287810000000002, .11270170000000002, .0012612801776005255
.76565989999999995, .28287810000000002, .28287810000000002, .0018856506956005077
.76565989999999995, .28287810000000002, .5, -.0025810782897495144
.76565989999999995, .28287810000000002, .71712189999999998, .0018856506956005077
.76565989999999995, .28287810000000002, .88729829999999998, .0012612801776005255
.76565989999999995, .28287810000000002, .98024560000000005, .0004916450289137545
.76565989999999995, .3883067, .5, .0051297593862400679
.76565989999999995, .5, .0030839999999999756, .00039795773224000523
.76565989999999995, .5, .01975439999999995, -.00068950339565321598
.76565989999999995, .5, .055770399999999998, .0021751283849600284
.76565989999999995, .5, .11270170000000002, -.0017213352923623854
.76565989999999995, .5, .18944850000000002, .0040145470816000525
.76565989999999995, .5, .28287810000000002, -.0025810782897495118
.76565989999999995, .5, .3883067, .0051297593862400679
.76565989999999995, .5, .5, -.0081724743838299686
.76565989999999995, .5, .6116933, .0051297593862400679
.76565989999999995, .5, .71712189999999998, -.0025810782897495118
.76565989999999995, .5, .81055149999999998, .0040145470816000525
.76565989999999995, .5, .88729829999999998, -.0017213352923623854
.76565989999999995, .5, .9442296, .0021751283849600284
.76565989999999995, .5, .98024560000000005, -.00068950339565321598
.76565989999999995, .5, .99691600000000002, .00039795773224000523
.76565989999999995, .6116933, .5, .0051297593862400679
.76565989999999995, .71712189999999998, .01975439999999995, .0004916450289137545
.76565989999999995, .71712189999999998, .11270170000000002, .0012612801776005255
.76565989999999995, .71712189999999998, .28287810000000002, .0018856506956005077
.76565989999999995, .71712189999999998, .5, -.0025810782897495144
.76565989999999995, .71712189999999998, .71712189999999998, .0018856506956005077
.76565989999999995, .71712189999999998, .88729829999999998, .0012612801776005255
.76565989999999995, .71712189999999998, .98024560000000005, .0004916450289137545
.76565989999999995, .81055149999999998, .5, .0040145470816000525
.76565989999999995, .88729829999999998, .01975439999999995, .00032885312790515429
.76565989999999995, .88729829999999998, .11270170000000002, .00084364919235552943
.76565989999999995, .88729829999999998, .28287810000000002, .0012612801776005255
.76565989999999995, .88729829999999998, .5, -.0017213352923623859
.76565989999999995, .88729829999999998, .71712189999999998, .0012612801776005255
.76565989999999995, .88729829999999998, .88729829999999998, .00084364919235552943
.76565989999999995, .88729829999999998, .98024560000000005, .00032885312790515429
.76565989999999995, .9442296, .5, .0021751283849600284
.76565989999999995, .98024560000000005, .01975439999999995, .00012818643188770943
.76565989999999995, .98024560000000005, .11270170000000002, .00032885312790515412
.76565989999999995, .98024560000000005, .28287810000000002, .00049164502891375439
.76565989999999995, .98024560000000005, .5, -.00068950339565321554
.76565989999999995, .98024560000000005, .71712189999999998, .00049164502891375439
.76565989999999995, .98024560000000005, .88729829999999998, .00032885312790515412
.76565989999999995, .98024560000000005, .98024560000000005, .00012818643188770943
.76565989999999995, .99691600000000002, .5, .00039795773224000523
.81055149999999998, .00045090000000003183, .5, .00010911593440000144
.81055149999999998, .0030839999999999756, .0030839999999999756, 6.197183136262441e-06
.81055149999999998, .0030839999999999756, .01975439999999995, .00001880944845940885
.81055149999999998, .0030839999999999756, .055770399999999998, .00003387211217283389
.81055149999999998, .0030839999999999756, .11270170000000002, .00004899455414705151
.81055149999999998, .0030839999999999756, .18944850000000002, .00006251639673838322
.81055149999999998, .0030839999999999756, .28287810000000002, .00007312944373960047
.81055149999999998, .0030839999999999756, .3883067, .00007988300210314441
.81055149999999998, .0030839999999999756, .5, -.00064964709239337024
.81055149999999998, .0030839999999999756, .6116933, .00007988300210314441
.81055149999999998, .0030839999999999756, .71712189999999998, .00007312944373960047
.81055149999999998, .0030839999999999756, .81055149999999998, .00006251639673838322
.81055149999999998, .0030839999999999756, .88729829999999998, .00004899455414705151
.81055149999999998, .0030839999999999756, .9442296, .00003387211217283389
.81055149999999998, .0030839999999999756, .98024560000000005, .00001880944845940885
.81055149999999998, .0030839999999999756, .99691600000000002, 6.197183136262441e-06
.81055149999999998, .009234399999999976, .5, .00070517158800000924
.81055149999999998, .01975439999999995, .0030839999999999756, .00001880944845940891
.81055149999999998, .01975439999999995, .01975439999999995, -.00006032014747425398
.81055149999999998, .01975439999999995, .055770399999999998, .00010280731327725168
.81055149999999998, .01975439999999995, .11270170000000002, -.00015250022226042946
.81055149999999998, .01975439999999995, .18944850000000002, .0001897473281752605
.81055149999999998, .01975439999999995, .28287810000000002, -.0002283530002276095
.81055149999999998, .01975439999999995, .3883067, .00024245777118475545
.81055149999999998, .01975439999999995, .5, -.00022503971426875461
.81055149999999998, .01975439999999995, .6116933, .00024245777118475545
.81055149999999998, .01975439999999995, .71712189999999998, -.0002283530002276095
.81055149999999998, .01975439999999995, .81055149999999998, .0001897473281752605
.81055149999999998, .01975439999999995, .88729829999999998, -.00015250022226042946
.81055149999999998, .01975439999999995, .9442296, .00010280731327725168
.81055149999999998, .01975439999999995, .98024560000000005, -.00006032014747425398
.81055149999999998, .01975439999999995, .99691600000000002, .00001880944845940891
.81055149999999998, .035172599999999998, .5, .0015417728216000203
.81055149999999998, .055770399999999998, .0030839999999999756, .00003387211217283389
.81055149999999998, .055770399999999998, .01975439999999995, .00010280731327725179
.81055149999999998, .055770399999999998, .055770399999999998, .00018513572341207217
.81055149999999998, .055770399999999998, .11270170000000002, .00026779086521038463
.81055149999999998, .055770399999999998, .18944850000000002, .00034169756749209408
.81055149999999998, .055770399999999998, .28287810000000002, .0003997055867189707
.81055149999999998, .055770399999999998, .3883067, .0004366186940817632
.81055149999999998, .055770399999999998, .5, -.0035352900271307325
.81055149999999998, .055770399999999998, .6116933, .0004366186940817632
.81055149999999998, .055770399999999998, .71712189999999998, .0003997055867189707
.81055149999999998, .055770399999999998, .81055149999999998, .00034169756749209408
.81055149999999998, .055770399999999998, .88729829999999998, .00026779086521038463
.81055149999999998, .055770399999999998, .9442296, .00018513572341207217
.81055149999999998, .055770399999999998, .98024560000000005, .00010280731327725179
.81055149999999998, .055770399999999998, .99691600000000002, .00003387211217283389
.81055149999999998, .08163699999999996, .5, .0024431712888000321
.81055149999999998, .11270170000000002, .0030839999999999756, .00004899455414705149
.81055149999999998, .11270170000000002, .01975439999999995, -.00015250022226043401
.81055149999999998, .11270170000000002, .055770399999999998, .00026779086521038593
.81055149999999998, .11270170000000002, .11270170000000002, -.00038537597890356864
.81055149999999998, .11270170000000002, .18944850000000002, .00049425084231487736
.81055149999999998, .11270170000000002, .28287810000000002, -.00057708792601339888
.81055149999999998, .11270170000000002, .3883067, .00063155017141094819
.81055149999999998, .11270170000000002, .5, -.00065523603621172536
.81055149999999998, .11270170000000002, .6116933, .00063155017141094819
.81055149999999998, .11270170000000002, .71712189999999998, -.00057708792601339888
.81055149999999998, .11270170000000002, .81055149999999998, .00049425084231487736
.81055149999999998, .11270170000000002, .88729829999999998, -.00038537597890356864
.81055149999999998, .11270170000000002, .9442296, .00026779086521038593
.81055149999999998, .11270170000000002, .98024560000000005, -.00015250022226043401
.81055149999999998, .11270170000000002, .99691600000000002, .00004899455414705149
.81055149999999998, .14875190000000005, .5, .0032964434888000439
.81055149999999998, .18944850000000002, .0030839999999999756, .00006251639673838322
.81055149999999998, .18944850000000002, .01975439999999995, .00018974732817526025
.81055149999999998, .18944850000000002, .055770399999999998, .00034169756749209403
.81055149999999998, .18944850000000002, .11270170000000002, .00049425084231487476
.81055149999999998, .18944850000000002, .18944850000000002, .00063065747376122422
.81055149999999998, .18944850000000002, .28287810000000002, .00073772054456977413
.81055149999999998, .18944850000000002, .3883067, .00080584958396843294
.81055149999999998, .18944850000000002, .5, -.0065248794740400788
.81055149999999998, .18944850000000002, .6116933, .00080584958396843294
.81055149999999998, .18944850000000002, .71712189999999998, .00073772054456977413
.81055149999999998, .18944850000000002, .81055149999999998, .00063065747376122422
.81055149999999998, .18944850000000002, .88729829999999998, .00049425084231487476
.81055149999999998, .18944850000000002, .9442296, .00034169756749209403
.81055149999999998, .18944850000000002, .98024560000000005, .00018974732817526025
.81055149999999998, .18944850000000002, .99691600000000002, .00006251639673838322
.81055149999999998, .23434010000000005, .5, .0040145470816000525
.81055149999999998, .28287810000000002, .0030839999999999756, .00007312944373960039
.81055149999999998, .28287810000000002, .01975439999999995, -.00022835300022761422
.81055149999999998, .28287810000000002, .055770399999999998, .00039970558671897157
.81055149999999998, .28287810000000002, .11270170000000002, -.00057708792601346654
.81055149999999998, .28287810000000002, .18944850000000002, .00073772054456977369
.81055149999999998, .28287810000000002, .28287810000000002, -.00086416572759674898
.81055149999999998, .28287810000000002, .3883067, .00094265400579649796
.81055149999999998, .28287810000000002, .5, -.00096721014177412242
.81055149999999998, .28287810000000002, .6116933, .00094265400579649796
.81055149999999998, .28287810000000002, .71712189999999998, -.00086416572759674898
.81055149999999998, .28287810000000002, .81055149999999998, .00073772054456977369
.81055149999999998, .28287810000000002, .88729829999999998, -.00057708792601346654
.81055149999999998, .28287810000000002, .9442296, .00039970558671897157
.81055149999999998, .28287810000000002, .98024560000000005, -.00022835300022761422
.81055149999999998, .28287810000000002, .99691600000000002, .00007312944373960039
.81055149999999998, .33443230000000002, .5, .0045309096844000597
.81055149999999998, .3883067, .0030839999999999756, .00007988300210314442
.81055149999999998, .3883067, .01975439999999995, .0002424577711847561
.81055149999999998, .3883067, .055770399999999998, .0004366186940817632
.81055149999999998, .3883067, .11270170000000002, .00063155017141094082
.81055149999999998, .3883067, .18944850000000002, .00080584958396843294
.81055149999999998, .3883067, .28287810000000002, .00094265400579649904
.81055149999999998, .3883067, .3883067, .0010297088023220129
.81055149999999998, .3883067, .5, -.0083374440617351338
.81055149999999998, .3883067, .6116933, .0010297088023220129
.81055149999999998, .3883067, .71712189999999998, .00094265400579649904
.81055149999999998, .3883067, .81055149999999998, .00080584958396843294
.81055149999999998, .3883067, .88729829999999998, .00063155017141094082
.81055149999999998, .3883067, .9442296, .0004366186940817632
.81055149999999998, .3883067, .98024560000000005, .0002424577711847561
.81055149999999998, .3883067, .99691600000000002, .00007988300210314442
.81055149999999998, .44375549999999997, .5, .0048004836704000631
.81055149999999998, .5, .00045090000000003183, .00010911593440000144
.81055149999999998, .5, .0030839999999999756, -.00064964709239337371
.81055149999999998, .5, .009234399999999976, .00070517158800000924
.81055149999999998, .5, .01975439999999995, -.00022503971426875613
.81055149999999998, .5, .035172599999999998, .0015417728216000203
.81055149999999998, .5, .055770399999999998, -.003535290027130762
.81055149999999998, .5, .08163699999999996, .0024431712888000321
.81055149999999998, .5, .11270170000000002, -.00065523603621164318
.81055149999999998, .5, .14875190000000005, .0032964434888000439
.81055149999999998, .5, .18944850000000002, -.0065248794740401204
.81055149999999998, .5, .23434010000000005, .0040145470816000525
.81055149999999998, .5, .28287810000000002, -.00096721014177411158
.81055149999999998, .5, .33443230000000002, .0045309096844000597
.81055149999999998, .5, .3883067, -.0083374440617350783
.81055149999999998, .5, .44375549999999997, .0048004836704000631
.81055149999999998, .5, .5, -.0010937380208930676
.81055149999999998, .5, .55624450000000003, .0048004836704000631
.81055149999999998, .5, .6116933, -.0083374440617350783
.81055149999999998, .5, .66556769999999998, .0045309096844000597
.81055149999999998, .5, .71712189999999998, -.00096721014177411158
.81055149999999998, .5, .76565989999999995, .0040145470816000525
.81055149999999998, .5, .81055149999999998, -.0065248794740401204
.81055149999999998, .5, .85124809999999995, .0032964434888000439
.81055149999999998, .5, .88729829999999998, -.00065523603621164318
.81055149999999998, .5, .91836300000000004, .0024431712888000321
.81055149999999998, .5, .9442296, -.003535290027130762
.81055149999999998, .5, .9648274, .0015417728216000203
.81055149999999998, .5, .98024560000000005, -.00022503971426875613
.81055149999999998, .5, .99076560000000002, .00070517158800000924
.81055149999999998, .5, .99691600000000002, -.00064964709239337371
.81055149999999998, .5, .99954909999999997, .00010911593440000144
.81055149999999998, .55624450000000003, .5, .0048004836704000631
.81055149999999998, .6116933, .0030839999999999756, .00007988300210314442
.81055149999999998, .6116933, .01975439999999995, .0002424577711847561
.81055149999999998, .6116933, .055770399999999998, .0004366186940817632
.81055149999999998, .6116933, .11270170000000002, .00063155017141094082
.81055149999999998, .6116933, .18944850000000002, .00080584958396843294
.81055149999999998, .6116933, .28287810000000002, .00094265400579649904
.81055149999999998, .6116933, .3883067, .0010297088023220129
.81055149999999998, .6116933, .5, -.0083374440617351338
.81055149999999998, .6116933, .6116933, .0010297088023220129
.81055149999999998, .6116933, .71712189999999998, .00094265400579649904
.81055149999999998, .6116933, .81055149999999998, .00080584958396843294
.81055149999999998, .6116933, .88729829999999998, .00063155017141094082
.81055149999999998, .6116933, .9442296, .0004366186940817632
.81055149999999998, .6116933, .98024560000000005, .0002424577711847561
.81055149999999998, .6116933, .99691600000000002, .00007988300210314442
.81055149999999998, .66556769999999998, .5, .0045309096844000597
.81055149999999998, .71712189999999998, .0030839999999999756, .00007312944373960039
.81055149999999998, .71712189999999998, .01975439999999995, -.00022835300022761422
.81055149999999998, .71712189999999998, .055770399999999998, .00039970558671897157
.81055149999999998, .71712189999999998, .11270170000000002, -.00057708792601346654
.81055149999999998, .71712189999999998, .18944850000000002, .00073772054456977369
.81055149999999998, .71712189999999998, .28287810000000002, -.00086416572759674898
.81055149999999998, .71712189999999998, .3883067, .00094265400579649796
.81055149999999998, .71712189999999998, .5, -.00096721014177412242
.81055149999999998, .71712189999999998, .6116933, .00094265400579649796
.81055149999999998, .71712189999999998, .71712189999999998, -.00086416572759674898
.81055149999999998, .71712189999999998, .81055149999999998, .00073772054456977369
.81055149999999998, .71712189999999998, .88729829999999998, -.00057708792601346654
.81055149999999998, .71712189999999998, .9442296, .00039970558671897157
.81055149999999998, .71712189999999998, .98024560000000005, -.00022835300022761422
.81055149999999998, .71712189999999998, .99691600000000002, .00007312944373960039
.81055149999999998, .76565989999999995, .5, .0040145470816000525
.81055149999999998, .81055149999999998, .0030839999999999756, .00006251639673838322
.81055149999999998, .81055149999999998, .01975439999999995, .00018974732817526025
.81055149999999998, .81055149999999998, .055770399999999998, .00034169756749209403
.81055149999999998, .81055149999999998, .11270170000000002, .00049425084231487476
.81055149999999998, .81055149999999998, .18944850000000002, .00063065747376122422
.81055149999999998, .81055149999999998, .28287810000000002, .00073772054456977413
.81055149999999998, .81055149999999998, .3883067, .00080584958396843294
.81055149999999998, .81055149999999998, .5, -.0065248794740400788
.81055149999999998, .81055149999999998, .6116933, .00080584958396843294
.81055149999999998, .81055149999999998, .71712189999999998, .00073772054456977413
.81055149999999998, .81055149999999998, .81055149999999998, .00063065747376122422
.81055149999999998, .81055149999999998, .88729829999999998, .00049425084231487476
.81055149999999998, .81055149999999998, .9442296, .00034169756749209403
.81055149999999998, .81055149999999998, .98024560000000005, .00018974732817526025
.81055149999999998, .81055149999999998, .99691600000000002, .00006251639673838322
.81055149999999998, .85124809999999995, .5, .0032964434888000439
.81055149999999998, .88729829999999998, .0030839999999999756, .00004899455414705149
.81055149999999998, .88729829999999998, .01975439999999995, -.00015250022226043401
.81055149999999998, .88729829999999998, .055770399999999998, .00026779086521038593
.81055149999999998, .88729829999999998, .11270170000000002, -.00038537597890356864
.81055149999999998, .88729829999999998, .18944850000000002, .00049425084231487736
.81055149999999998, .88729829999999998, .28287810000000002, -.00057708792601339888
.81055149999999998, .88729829999999998, .3883067, .00063155017141094819
.81055149999999998, .88729829999999998, .5, -.00065523603621172536
.81055149999999998, .88729829999999998, .6116933, .00063155017141094819
.81055149999999998, .88729829999999998, .71712189999999998, -.00057708792601339888
.81055149999999998, .88729829999999998, .81055149999999998, .00049425084231487736
.81055149999999998, .88729829999999998, .88729829999999998, -.00038537597890356864
.81055149999999998, .88729829999999998, .9442296, .00026779086521038593
.81055149999999998, .88729829999999998, .98024560000000005, -.00015250022226043401
.81055149999999998, .88729829999999998, .99691600000000002, .00004899455414705149
.81055149999999998, .91836300000000004, .5, .0024431712888000321
.81055149999999998, .9442296, .0030839999999999756, .00003387211217283389
.81055149999999998, .9442296, .01975439999999995, .00010280731327725179
.81055149999999998, .9442296, .055770399999999998, .00018513572341207217
.81055149999999998, .9442296, .11270170000000002, .00026779086521038463
.81055149999999998, .9442296, .18944850000000002, .00034169756749209408
.81055149999999998, .9442296, .28287810000000002, .0003997055867189707
.81055149999999998, .9442296, .3883067, .0004366186940817632
.81055149999999998, .9442296, .5, -.0035352900271307325
.81055149999999998, .9442296, .6116933, .0004366186940817632
.81055149999999998, .9442296, .71712189999999998, .0003997055867189707
.81055149999999998, .9442296, .81055149999999998, .00034169756749209408
.81055149999999998, .9442296, .88729829999999998, .00026779086521038463
.81055149999999998, .9442296, .9442296, .00018513572341207217
.81055149999999998, .9442296, .98024560000000005, .00010280731327725179
.81055149999999998, .9442296, .99691600000000002, .00003387211217283389
.81055149999999998, .9648274, .5, .0015417728216000203
.81055149999999998, .98024560000000005, .0030839999999999756, .00001880944845940891
.81055149999999998, .98024560000000005, .01975439999999995, -.00006032014747425398
.81055149999999998, .98024560000000005, .055770399999999998, .00010280731327725168
.81055149999999998, .98024560000000005, .11270170000000002, -.00015250022226042946
.81055149999999998, .98024560000000005, .18944850000000002, .0001897473281752605
.81055149999999998, .98024560000000005, .28287810000000002, -.0002283530002276095
.81055149999999998, .98024560000000005, .3883067, .00024245777118475545
.81055149999999998, .98024560000000005, .5, -.00022503971426875461
.81055149999999998, .98024560000000005, .6116933, .00024245777118475545
.81055149999999998, .98024560000000005, .71712189999999998, -.0002283530002276095
.81055149999999998, .98024560000000005, .81055149999999998, .0001897473281752605
.81055149999999998, .98024560000000005, .88729829999999998, -.00015250022226042946
.81055149999999998, .98024560000000005, .9442296, .00010280731327725168
.81055149999999998, .98024560000000005, .98024560000000005, -.00006032014747425398
.81055149999999998, .98024560000000005, .99691600000000002, .00001880944845940891
.81055149999999998, .99076560000000002, .5, .00070517158800000924
.81055149999999998, .99691600000000002, .0030839999999999756, 6.197183136262441e-06
.81055149999999998, .99691600000000002, .01975439999999995, .00001880944845940885
.81055149999999998, .99691600000000002, .055770399999999998, .00003387211217283389
.81055149999999998, .99691600000000002, .11270170000000002, .00004899455414705151
.81055149999999998, .99691600000000002, .18944850000000002, .00006251639673838322
.81055149999999998, .99691600000000002, .28287810000000002, .00007312944373960047
.81055149999999998, .99691600000000002, .3883067, .00007988300210314441
.81055149999999998, .99691600000000002, .5, -.00064964709239337024
.81055149999999998, .99691600000000002, .6116933, .00007988300210314441
.81055149999999998, .99691600000000002, .71712189999999998, .00007312944373960047
.81055149999999998, .99691600000000002, .81055149999999998, .00006251639673838322
.81055149999999998, .99691600000000002, .88729829999999998, .00004899455414705151
.81055149999999998, .99691600000000002, .9442296, .00003387211217283389
.81055149999999998, .99691600000000002, .98024560000000005, .00001880944845940885
.81055149999999998, .99691600000000002, .99691600000000002, 6.197183136262441e-06
.81055149999999998, .99954909999999997, .5, .00010911593440000144
.85124809999999995, .0030839999999999756, .5, .00032677289582000435
.85124809999999995, .01975439999999995, .01975439999999995, .00010525703651240612
.85124809999999995, .01975439999999995, .11270170000000002, .00027002940312320596
.85124809999999995, .01975439999999995, .28287810000000002, .00040370184267902797
.85124809999999995, .01975439999999995, .5, -.00056616822094926803
.85124809999999995, .01975439999999995, .71712189999999998, .00040370184267902797
.85124809999999995, .01975439999999995, .88729829999999998, .00027002940312320596
.85124809999999995, .01975439999999995, .98024560000000005, .00010525703651240612
.85124809999999995, .055770399999999998, .5, .0017860514912800237
.85124809999999995, .11270170000000002, .01975439999999995, .00027002940312320558
.85124809999999995, .11270170000000002, .11270170000000002, .00069274113130176143
.85124809999999995, .11270170000000002, .28287810000000002, .001035668219725222
.85124809999999995, .11270170000000002, .5, -.0014134308058203363
.85124809999999995, .11270170000000002, .71712189999999998, .001035668219725222
.85124809999999995, .11270170000000002, .88729829999999998, .00069274113130176143
.85124809999999995, .11270170000000002, .98024560000000005, .00027002940312320558
.85124809999999995, .18944850000000002, .5, .0032964434888000439
.85124809999999995, .28287810000000002, .01975439999999995, .00040370184267902792
.85124809999999995, .28287810000000002, .11270170000000002, .0010356682197252237
.85124809999999995, .28287810000000002, .28287810000000002, .0015483542305813783
.85124809999999995, .28287810000000002, .5, -.0021193869568312076
.85124809999999995, .28287810000000002, .71712189999999998, .0015483542305813783
.85124809999999995, .28287810000000002, .88729829999999998, .0010356682197252237
.85124809999999995, .28287810000000002, .98024560000000005, .00040370184267902792
.85124809999999995, .3883067, .5, .0042121717803200558
.85124809999999995, .5, .0030839999999999756, .00032677289582000435
.85124809999999995, .5, .01975439999999995, -.00056616822094926868
.85124809999999995, .5, .055770399999999998, .0017860514912800237
.85124809999999995, .5, .11270170000000002, -.0014134308058203614
.85124809999999995, .5, .18944850000000002, .0032964434888000439
.85124809999999995, .5, .28287810000000002, -.0021193869568312059
.85124809999999995, .5, .3883067, .0042121717803200558
.85124809999999995, .5, .5, -.0067106200082784669
.85124809999999995, .5, .6116933, .0042121717803200558
.85124809999999995, .5, .71712189999999998, -.0021193869568312059
.85124809999999995, .5, .81055149999999998, .0032964434888000439
.85124809999999995, .5, .88729829999999998, -.0014134308058203614
.85124809999999995, .5, .9442296, .0017860514912800237
.85124809999999995, .5, .98024560000000005, -.00056616822094926868
.85124809999999995, .5, .99691600000000002, .00032677289582000435
.85124809999999995, .6116933, .5, .0042121717803200558
.85124809999999995, .71712189999999998, .01975439999999995, .00040370184267902792
.85124809999999995, .71712189999999998, .11270170000000002, .0010356682197252237
.85124809999999995, .71712189999999998, .28287810000000002, .0015483542305813783
.85124809999999995, .71712189999999998, .5, -.0021193869568312076
.85124809999999995, .71712189999999998, .71712189999999998, .0015483542305813783
.85124809999999995, .71712189999999998, .88729829999999998, .0010356682197252237
.85124809999999995, .71712189999999998, .98024560000000005, .00040370184267902792
.85124809999999995, .81055149999999998, .5, .0032964434888000439
.85124809999999995, .88729829999999998, .01975439999999995, .00027002940312320558
.85124809999999995, .88729829999999998, .11270170000000002, .00069274113130176143
.85124809999999995, .88729829999999998, .28287810000000002, .001035668219725222
.85124809999999995, .88729829999999998, .5, -.0014134308058203363
.85124809999999995, .88729829999999998, .71712189999999998, .001035668219725222
.85124809999999995, .88729829999999998, .88729829999999998, .00069274113130176143
.85124809999999995, .88729829999999998, .98024560000000005, .00027002940312320558
.85124809999999995, .9442296, .5, .0017860514912800237
.85124809999999995, .98024560000000005, .01975439999999995, .00010525703651240612
.85124809999999995, .98024560000000005, .11270170000000002, .00027002940312320596
.85124809999999995, .98024560000000005, .28287810000000002, .00040370184267902797
.85124809999999995, .98024560000000005, .5, -.00056616822094926803
.85124809999999995, .98024560000000005, .71712189999999998, .00040370184267902797
.85124809999999995, .98024560000000005, .88729829999999998, .00027002940312320596
.85124809999999995, .98024560000000005, .98024560000000005, .00010525703651240612
.85124809999999995, .99691600000000002, .5, .00032677289582000435
.88729829999999998, .00045090000000003183, .01975439999999995, 8.938272637577916e-06
.88729829999999998, .00045090000000003183, .11270170000000002, .00002293049952050637
.88729829999999998, .00045090000000003183, .28287810000000002, .00003428176636658806
.88729829999999998, .00045090000000003183, .5, -.00004678612680934377
.88729829999999998, .00045090000000003183, .71712189999999998, .00003428176636658806
.88729829999999998, .00045090000000003183, .88729829999999998, .00002293049952050637
.88729829999999998, .00045090000000003183, .98024560000000005, 8.938272637577916e-06
.88729829999999998, .0030839999999999756, .0030839999999999756, 4.856777430718235e-06
.88729829999999998, .0030839999999999756, .01975439999999995, -.00001535005289145435
.88729829999999998, .0030839999999999756, .055770399999999998, .00002654582030489965
.88729829999999998, .0030839999999999756, .11270170000000002, -.00003879931733264624
.88729829999999998, .0030839999999999756, .18944850000000002, .0000489945541470517
.88729829999999998, .0030839999999999756, .28287810000000002, -.00005809925236047131
.88729829999999998, .0030839999999999756, .3883067, .00006260488889578821
.88729829999999998, .0030839999999999756, .5, -.00006373391823777777
.88729829999999998, .0030839999999999756, .6116933, .00006260488889578821
.88729829999999998, .0030839999999999756, .71712189999999998, -.00005809925236047131
.88729829999999998, .0030839999999999756, .81055149999999998, .0000489945541470517
.88729829999999998, .0030839999999999756, .88729829999999998, -.00003879931733264624
.88729829999999998, .0030839999999999756, .9442296, .00002654582030489965
.88729829999999998, .0030839999999999756, .98024560000000005, -.00001535005289145435
.88729829999999998, .0030839999999999756, .99691600000000002, 4.856777430718235e-06
.88729829999999998, .009234399999999976, .01975439999999995, .00005776439476485631
.88729829999999998, .009234399999999976, .11270170000000002, .00014819042561861354
