.9442296, .88729829999999998, .99691600000000002, -.00002668543289915379
.9442296, .88729829999999998, .99954909999999997, 7.936544284866358e-06
.9442296, .91836300000000004, .01975439999999995, .00006926873649147869
.9442296, .91836300000000004, .11270170000000002, .00017770399195770652
.9442296, .91836300000000004, .28287810000000002, .00026567265703288166
.9442296, .91836300000000004, .5, .00029844790031582945
.9442296, .91836300000000004, .71712189999999998, .00026567265703288166
.9442296, .91836300000000004, .88729829999999998, .00017770399195770652
.9442296, .91836300000000004, .98024560000000005, .00006926873649147869
.9442296, .9442296, .0030839999999999756, .00001835230504167196
.9442296, .9442296, .01975439999999995, -.00005726911864240709
.9442296, .9442296, .055770399999999998, .0001003086920836887
.9442296, .9442296, .11270170000000002, -.0001447276320488673
.9442296, .9442296, .18944850000000002, .00018513572341206464
.9442296, .9442296, .28287810000000002, -.00021672398411063548
.9442296, .9442296, .3883067, .00023656509578731048
.9442296, .9442296, .5, -.00024331933392565677
.9442296, .9442296, .6116933, .00023656509578731048
.9442296, .9442296, .71712189999999998, -.00021672398411063548
.9442296, .9442296, .81055149999999998, .00018513572341206464
.9442296, .9442296, .88729829999999998, -.0001447276320488673
.9442296, .9442296, .9442296, .0001003086920836887
.9442296, .9442296, .98024560000000005, -.00005726911864240709
.9442296, .9442296, .99691600000000002, .00001835230504167196
.9442296, .9648274, .01975439999999995, .00004371230776929635
.9442296, .9648274, .11270170000000002, .00011214080091158333
.9442296, .9648274, .28287810000000002, .0001676537719370219
.9442296, .9648274, .5, .00018833671772417419
.9442296, .9648274, .71712189999999998, .0001676537719370219
.9442296, .9648274, .88729829999999998, .00011214080091158333
.9442296, .9648274, .98024560000000005, .00004371230776929635
.9442296, .98024560000000005, .00045090000000003183, 3.093652476035545e-06
.9442296, .98024560000000005, .0030839999999999756, -.00001055828041596292
.9442296, .98024560000000005, .009234399999999976, .000019993008731877
.9442296, .98024560000000005, .01975439999999995, -.00003090505554895033
.9442296, .98024560000000005, .035172599999999998, .00004371230776929634
.9442296, .98024560000000005, .055770399999999998, -.00005726911864240733
.9442296, .98024560000000005, .08163699999999996, .0000692687364914787
.9442296, .98024560000000005, .11270170000000002, -.00008055474779107165
.9442296, .98024560000000005, .14875190000000005, .00009346069038691542
.9442296, .98024560000000005, .18944850000000002, -.00010569751670306047
.9442296, .98024560000000005, .23434010000000005, .0001138203470230569
.9442296, .98024560000000005, .28287810000000002, -.00012023125138548182
.9442296, .98024560000000005, .33443230000000002, .00012846024772562907
.9442296, .98024560000000005, .3883067, -.00013505952661381864
.9442296, .98024560000000005, .44375549999999997, .00013610320321008189
.9442296, .98024560000000005, .5, -.00013514432326723985
.9442296, .98024560000000005, .55624450000000003, .00013610320321008189
.9442296, .98024560000000005, .6116933, -.00013505952661381864
.9442296, .98024560000000005, .66556769999999998, .00012846024772562907
.9442296, .98024560000000005, .71712189999999998, -.00012023125138548182
.9442296, .98024560000000005, .76565989999999995, .0001138203470230569
.9442296, .98024560000000005, .81055149999999998, -.00010569751670306047
.9442296, .98024560000000005, .85124809999999995, .00009346069038691542
.9442296, .98024560000000005, .88729829999999998, -.00008055474779107165
.9442296, .98024560000000005, .91836300000000004, .0000692687364914787
.9442296, .98024560000000005, .9442296, -.00005726911864240733
.9442296, .98024560000000005, .9648274, .00004371230776929634
.9442296, .98024560000000005, .98024560000000005, -.00003090505554895033
.9442296, .98024560000000005, .99076560000000002, .000019993008731877
.9442296, .98024560000000005, .99691600000000002, -.00001055828041596292
.9442296, .98024560000000005, .99954909999999997, 3.093652476035545e-06
.9442296, .99076560000000002, .01975439999999995, .000019993008731877
.9442296, .99076560000000002, .11270170000000002, .00005129063474886521
.9442296, .99076560000000002, .28287810000000002, .00007668099666481989
.9442296, .99076560000000002, .5, .00008614090250886488
.9442296, .99076560000000002, .71712189999999998, .00007668099666481989
.9442296, .99076560000000002, .88729829999999998, .00005129063474886521
.9442296, .99076560000000002, .98024560000000005, .000019993008731877
.9442296, .99691600000000002, .0030839999999999756, 3.357706030715423e-06
.9442296, .99691600000000002, .01975439999999995, -.00001055828041596287
.9442296, .99691600000000002, .055770399999999998, .00001835230504167195
.9442296, .99691600000000002, .11270170000000002, -.0000266854328991536
.9442296, .99691600000000002, .18944850000000002, .00003387211217283252
.9442296, .99691600000000002, .28287810000000002, -.00003995989322473423
.9442296, .99691600000000002, .3883067, .00004328154130929034
.9442296, .99691600000000002, .5, -.0000448637847293103
.9442296, .99691600000000002, .6116933, .00004328154130929034
.9442296, .99691600000000002, .71712189999999998, -.00003995989322473423
.9442296, .99691600000000002, .81055149999999998, .00003387211217283252
.9442296, .99691600000000002, .88729829999999998, -.0000266854328991536
.9442296, .99691600000000002, .9442296, .00001835230504167195
.9442296, .99691600000000002, .98024560000000005, -.00001055828041596287
.9442296, .99691600000000002, .99691600000000002, 3.357706030715423e-06
.9442296, .99954909999999997, .01975439999999995, 3.093652476035545e-06
.9442296, .99954909999999997, .11270170000000002, 7.936544284866369e-06
.9442296, .99954909999999997, .28287810000000002, .00001186536545741418
.9442296, .99954909999999997, .5, .00001332916020336617
.9442296, .99954909999999997, .71712189999999998, .00001186536545741418
.9442296, .99954909999999997, .88729829999999998, 7.936544284866369e-06
.9442296, .99954909999999997, .98024560000000005, 3.093652476035545e-06
.9648274, .0030839999999999756, .01975439999999995, 7.997528325743404e-06
.9648274, .0030839999999999756, .11270170000000002, .00002051708723536869
.9648274, .0030839999999999756, .28287810000000002, .00003067364452731663
.9648274, .0030839999999999756, .5, .00003445776056313818
.9648274, .0030839999999999756, .71712189999999998, .00003067364452731663
.9648274, .0030839999999999756, .88729829999999998, .00002051708723536869
.9648274, .0030839999999999756, .98024560000000005, 7.997528325743404e-06
.9648274, .01975439999999995, .0030839999999999756, 7.997528325743406e-06
.9648274, .01975439999999995, .01975439999999995, -6.819807470834977e-07
.9648274, .01975439999999995, .055770399999999998, .00004371230776929634
.9648274, .01975439999999995, .11270170000000002, -7.942614553534724e-07
.9648274, .01975439999999995, .18944850000000002, .00008067805045376976
.9648274, .01975439999999995, .28287810000000002, -1.340815247339892e-06
.9648274, .01975439999999995, .3883067, .00010308983259297734
.9648274, .01975439999999995, .5, -1.444677624033716e-06
.9648274, .01975439999999995, .6116933, .00010308983259297734
.9648274, .01975439999999995, .71712189999999998, -1.340815247339892e-06
.9648274, .01975439999999995, .81055149999999998, .00008067805045376976
.9648274, .01975439999999995, .88729829999999998, -7.942614553534724e-07
.9648274, .01975439999999995, .9442296, .00004371230776929634
.9648274, .01975439999999995, .98024560000000005, -6.819807470834977e-07
.9648274, .01975439999999995, .99691600000000002, 7.997528325743406e-06
.9648274, .055770399999999998, .01975439999999995, .00004371230776929635
.9648274, .055770399999999998, .11270170000000002, .00011214080091158322
.9648274, .055770399999999998, .28287810000000002, .0001676537719370219
.9648274, .055770399999999998, .5, .00018833671772417463
.9648274, .055770399999999998, .71712189999999998, .0001676537719370219
.9648274, .055770399999999998, .88729829999999998, .00011214080091158322
.9648274, .055770399999999998, .98024560000000005, .00004371230776929635
.9648274, .11270170000000002, .0030839999999999756, .00002051708723536871
.9648274, .11270170000000002, .01975439999999995, -7.942614553523340e-07
.9648274, .11270170000000002, .055770399999999998, .0001121408009115833
.9648274, .11270170000000002, .11270170000000002, 4.131621246110854e-07
.9648274, .11270170000000002, .18944850000000002, .00020697377136024174
.9648274, .11270170000000002, .28287810000000002, 2.242266452551322e-07
.9648274, .11270170000000002, .3883067, .00026446959638533947
.9648274, .11270170000000002, .5, 4.097909458883520e-07
.9648274, .11270170000000002, .6116933, .00026446959638533947
.9648274, .11270170000000002, .71712189999999998, 2.242266452551322e-07
.9648274, .11270170000000002, .81055149999999998, .00020697377136024174
.9648274, .11270170000000002, .88729829999999998, 4.131621246110854e-07
.9648274, .11270170000000002, .9442296, .0001121408009115833
.9648274, .11270170000000002, .98024560000000005, -7.942614553523340e-07
.9648274, .11270170000000002, .99691600000000002, .00002051708723536871
.9648274, .18944850000000002, .01975439999999995, .00008067805045376976
.9648274, .18944850000000002, .11270170000000002, .00020697377136024174
.9648274, .18944850000000002, .28287810000000002, .00030943183193362647
.9648274, .18944850000000002, .5, .00034760551410468375
.9648274, .18944850000000002, .71712189999999998, .00030943183193362647
.9648274, .18944850000000002, .88729829999999998, .00020697377136024174
.9648274, .18944850000000002, .98024560000000005, .00008067805045376976
.9648274, .28287810000000002, .0030839999999999756, .00003067364452731664
.9648274, .28287810000000002, .01975439999999995, -1.340815247339987e-06
.9648274, .28287810000000002, .055770399999999998, .0001676537719370219
.9648274, .28287810000000002, .11270170000000002, 2.242266452510123e-07
.9648274, .28287810000000002, .18944850000000002, .00030943183193362647
.9648274, .28287810000000002, .28287810000000002, -2.530129865644796e-07
.9648274, .28287810000000002, .3883067, .00039538976925644506
.9648274, .28287810000000002, .5, -4.815815156659947e-08
.9648274, .28287810000000002, .6116933, .00039538976925644506
.9648274, .28287810000000002, .71712189999999998, -2.530129865644796e-07
.9648274, .28287810000000002, .81055149999999998, .00030943183193362647
.9648274, .28287810000000002, .88729829999999998, 2.242266452510123e-07
.9648274, .28287810000000002, .9442296, .0001676537719370219
.9648274, .28287810000000002, .98024560000000005, -1.340815247339987e-06
.9648274, .28287810000000002, .99691600000000002, .00003067364452731664
.9648274, .3883067, .01975439999999995, .00010308983259297734
.9648274, .3883067, .11270170000000002, .00026446959638533872
.9648274, .3883067, .28287810000000002, .00039538976925644506
.9648274, .3883067, .5, .00044416782577042408
.9648274, .3883067, .71712189999999998, .00039538976925644506
.9648274, .3883067, .88729829999999998, .00026446959638533872
.9648274, .3883067, .98024560000000005, .00010308983259297734
.9648274, .5, .0030839999999999756, .00003445776056313809
.9648274, .5, .01975439999999995, -1.444677624034340e-06
.9648274, .5, .055770399999999998, .00018833671772417354
.9648274, .5, .11270170000000002, 4.097909458631985e-07
.9648274, .5, .18944850000000002, .00034760551410468072
.9648274, .5, .28287810000000002, -4.815815156898471e-08
.9648274, .5, .3883067, .00044416782577042104
.9648274, .5, .5, 2.110920546090080e-07
.9648274, .5, .6116933, .00044416782577042104
.9648274, .5, .71712189999999998, -4.815815156898471e-08
.9648274, .5, .81055149999999998, .00034760551410468072
.9648274, .5, .88729829999999998, 4.097909458631985e-07
.9648274, .5, .9442296, .00018833671772417354
.9648274, .5, .98024560000000005, -1.444677624034340e-06
.9648274, .5, .99691600000000002, .00003445776056313809
.9648274, .6116933, .01975439999999995, .00010308983259297734
.9648274, .6116933, .11270170000000002, .00026446959638533872
.9648274, .6116933, .28287810000000002, .00039538976925644506
.9648274, .6116933, .5, .00044416782577042408
.9648274, .6116933, .71712189999999998, .00039538976925644506
.9648274, .6116933, .88729829999999998, .00026446959638533872
.9648274, .6116933, .98024560000000005, .00010308983259297734
.9648274, .71712189999999998, .0030839999999999756, .00003067364452731664
.9648274, .71712189999999998, .01975439999999995, -1.340815247339987e-06
.9648274, .71712189999999998, .055770399999999998, .0001676537719370219
.9648274, .71712189999999998, .11270170000000002, 2.242266452510123e-07
.9648274, .71712189999999998, .18944850000000002, .00030943183193362647
.9648274, .71712189999999998, .28287810000000002, -2.530129865644796e-07
.9648274, .71712189999999998, .3883067, .00039538976925644506
.9648274, .71712189999999998, .5, -4.815815156659947e-08
.9648274, .71712189999999998, .6116933, .00039538976925644506
.9648274, .71712189999999998, .71712189999999998, -2.530129865644796e-07
.9648274, .71712189999999998, .81055149999999998, .00030943183193362647
.9648274, .71712189999999998, .88729829999999998, 2.242266452510123e-07
.9648274, .71712189999999998, .9442296, .0001676537719370219
.9648274, .71712189999999998, .98024560000000005, -1.340815247339987e-06
.9648274, .71712189999999998, .99691600000000002, .00003067364452731664
.9648274, .81055149999999998, .01975439999999995, .00008067805045376976
.9648274, .81055149999999998, .11270170000000002, .00020697377136024174
.9648274, .81055149999999998, .28287810000000002, .00030943183193362647
.9648274, .81055149999999998, .5, .00034760551410468375
.9648274, .81055149999999998, .71712189999999998, .00030943183193362647
.9648274, .81055149999999998, .88729829999999998, .00020697377136024174
.9648274, .81055149999999998, .98024560000000005, .00008067805045376976
.9648274, .88729829999999998, .0030839999999999756, .00002051708723536871
.9648274, .88729829999999998, .01975439999999995, -7.942614553523340e-07
.9648274, .88729829999999998, .055770399999999998, .0001121408009115833
.9648274, .88729829999999998, .11270170000000002, 4.131621246110854e-07
.9648274, .88729829999999998, .18944850000000002, .00020697377136024174
.9648274, .88729829999999998, .28287810000000002, 2.242266452551322e-07
.9648274, .88729829999999998, .3883067, .00026446959638533947
.9648274, .88729829999999998, .5, 4.097909458883520e-07
.9648274, .88729829999999998, .6116933, .00026446959638533947
.9648274, .88729829999999998, .71712189999999998, 2.242266452551322e-07
.9648274, .88729829999999998, .81055149999999998, .00020697377136024174
.9648274, .88729829999999998, .88729829999999998, 4.131621246110854e-07
.9648274, .88729829999999998, .9442296, .0001121408009115833
.9648274, .88729829999999998, .98024560000000005, -7.942614553523340e-07
.9648274, .88729829999999998, .99691600000000002, .00002051708723536871
.9648274, .9442296, .01975439999999995, .00004371230776929635
.9648274, .9442296, .11270170000000002, .00011214080091158322
.9648274, .9442296, .28287810000000002, .0001676537719370219
.9648274, .9442296, .5, .00018833671772417463
.9648274, .9442296, .71712189999999998, .0001676537719370219
.9648274, .9442296, .88729829999999998, .00011214080091158322
.9648274, .9442296, .98024560000000005, .00004371230776929635
.9648274, .98024560000000005, .0030839999999999756, 7.997528325743406e-06
.9648274, .98024560000000005, .01975439999999995, -6.819807470834977e-07
.9648274, .98024560000000005, .055770399999999998, .00004371230776929634
.9648274, .98024560000000005, .11270170000000002, -7.942614553534724e-07
.9648274, .98024560000000005, .18944850000000002, .00008067805045376976
.9648274, .98024560000000005, .28287810000000002, -1.340815247339892e-06
.9648274, .98024560000000005, .3883067, .00010308983259297734
.9648274, .98024560000000005, .5, -1.444677624033716e-06
.9648274, .98024560000000005, .6116933, .00010308983259297734
.9648274, .98024560000000005, .71712189999999998, -1.340815247339892e-06
.9648274, .98024560000000005, .81055149999999998, .00008067805045376976
.9648274, .98024560000000005, .88729829999999998, -7.942614553534724e-07
.9648274, .98024560000000005, .9442296, .00004371230776929634
.9648274, .98024560000000005, .98024560000000005, -6.819807470834977e-07
.9648274, .98024560000000005, .99691600000000002, 7.997528325743406e-06
.9648274, .99691600000000002, .01975439999999995, 7.997528325743404e-06
.9648274, .99691600000000002, .11270170000000002, .00002051708723536869
.9648274, .99691600000000002, .28287810000000002, .00003067364452731663
.9648274, .99691600000000002, .5, .00003445776056313818
.9648274, .99691600000000002, .71712189999999998, .00003067364452731663
.9648274, .99691600000000002, .88729829999999998, .00002051708723536869
.9648274, .99691600000000002, .98024560000000005, 7.997528325743404e-06
.98024560000000005, .00045090000000003183, .0030839999999999756, 5.660093133879115e-07
.98024560000000005, .00045090000000003183, .01975439999999995, -4.826584398056095e-08
.98024560000000005, .00045090000000003183, .055770399999999998, 3.093652476035545e-06
.98024560000000005, .00045090000000003183, .11270170000000002, -5.621228993303782e-08
.98024560000000005, .00045090000000003183, .18944850000000002, 5.709830097859490e-06
.98024560000000005, .00045090000000003183, .28287810000000002, -9.489355793639730e-08
.98024560000000005, .00045090000000003183, .3883067, 7.295979831093876e-06
.98024560000000005, .00045090000000003183, .5, -1.022442130546780e-07
.98024560000000005, .00045090000000003183, .6116933, 7.295979831093876e-06
.98024560000000005, .00045090000000003183, .71712189999999998, -9.489355793639730e-08
.98024560000000005, .00045090000000003183, .81055149999999998, 5.709830097859490e-06
.98024560000000005, .00045090000000003183, .88729829999999998, -5.621228993303782e-08
.98024560000000005, .00045090000000003183, .9442296, 3.093652476035545e-06
.98024560000000005, .00045090000000003183, .98024560000000005, -4.826584398056095e-08
.98024560000000005, .00045090000000003183, .99691600000000002, 5.660093133879115e-07
.98024560000000005, .0030839999999999756, .00045090000000003183, 5.660093133879115e-07
.98024560000000005, .0030839999999999756, .0030839999999999756, -1.946438506209018e-06
.98024560000000005, .0030839999999999756, .009234399999999976, 3.657886343908203e-06
.98024560000000005, .0030839999999999756, .01975439999999995, -5.653080881163386e-06
.98024560000000005, .0030839999999999756, .035172599999999998, 7.997528325743406e-06
.98024560000000005, .0030839999999999756, .055770399999999998, -.0000105582804159628
.98024560000000005, .0030839999999999756, .08163699999999996, .00001267328838145153
.98024560000000005, .0030839999999999756, .11270170000000002, -.00001473669624175747
.98024560000000005, .0030839999999999756, .14875190000000005, .00001709940647969872
.98024560000000005, .0030839999999999756, .18944850000000002, -.00001948666561371151
.98024560000000005, .0030839999999999756, .23434010000000005, .00002082437409086477
.98024560000000005, .0030839999999999756, .28287810000000002, -.00002199483526342594
.98024560000000005, .0030839999999999756, .33443230000000002, .00002350286503608848
.98024560000000005, .0030839999999999756, .3883067, -.00002489992116336538
.98024560000000005, .0030839999999999756, .44375549999999997, .00002490120696994174
.98024560000000005, .0030839999999999756, .5, -.00002472311405096227
.98024560000000005, .0030839999999999756, .55624450000000003, .00002490120696994174
.98024560000000005, .0030839999999999756, .6116933, -.00002489992116336538
.98024560000000005, .0030839999999999756, .66556769999999998, .00002350286503608848
.98024560000000005, .0030839999999999756, .71712189999999998, -.00002199483526342594
.98024560000000005, .0030839999999999756, .76565989999999995, .00002082437409086477
.98024560000000005, .0030839999999999756, .81055149999999998, -.00001948666561371151
.98024560000000005, .0030839999999999756, .85124809999999995, .00001709940647969872
.98024560000000005, .0030839999999999756, .88729829999999998, -.00001473669624175747
.98024560000000005, .0030839999999999756, .91836300000000004, .00001267328838145153
.98024560000000005, .0030839999999999756, .9442296, -.0000105582804159628
.98024560000000005, .0030839999999999756, .9648274, 7.997528325743406e-06
.98024560000000005, .0030839999999999756, .98024560000000005, -5.653080881163386e-06
.98024560000000005, .0030839999999999756, .99076560000000002, 3.657886343908203e-06
.98024560000000005, .0030839999999999756, .99691600000000002, -1.946438506209018e-06
.98024560000000005, .0030839999999999756, .99954909999999997, 5.660093133879115e-07
.98024560000000005, .009234399999999976, .0030839999999999756, 3.657886343908203e-06
.98024560000000005, .009234399999999976, .01975439999999995, -3.119223790099044e-07
.98024560000000005, .009234399999999976, .055770399999999998, .000019993008731877
.98024560000000005, .009234399999999976, .11270170000000002, -3.632770041805252e-07
.98024560000000005, .009234399999999976, .18944850000000002, .00003690029306405108
.98024560000000005, .009234399999999976, .28287810000000002, -6.132581946802616e-07
.98024560000000005, .009234399999999976, .3883067, .00004715092907189951
.98024560000000005, .009234399999999976, .5, -6.607624677348020e-07
.98024560000000005, .009234399999999976, .6116933, .00004715092907189951
.98024560000000005, .009234399999999976, .71712189999999998, -6.132581946802616e-07
.98024560000000005, .009234399999999976, .81055149999999998, .00003690029306405108
.98024560000000005, .009234399999999976, .88729829999999998, -3.632770041805252e-07
.98024560000000005, .009234399999999976, .9442296, .000019993008731877
.98024560000000005, .009234399999999976, .98024560000000005, -3.119223790099044e-07
.98024560000000005, .009234399999999976, .99691600000000002, 3.657886343908203e-06
.98024560000000005, .01975439999999995, .00045090000000003183, -4.826584398056539e-08
.98024560000000005, .01975439999999995, .0030839999999999756, -5.653080881163687e-06
.98024560000000005, .01975439999999995, .009234399999999976, -3.119223790098993e-07
.98024560000000005, .01975439999999995, .01975439999999995, .00001864446081264499
.98024560000000005, .01975439999999995, .035172599999999998, -6.819807470834638e-07
.98024560000000005, .01975439999999995, .055770399999999998, -.0000309050555489491
.98024560000000005, .01975439999999995, .08163699999999996, -1.080701227473609e-06
.98024560000000005, .01975439999999995, .11270170000000002, .00004715590419562903
.98024560000000005, .01975439999999995, .14875190000000005, -1.458133754671569e-06
.98024560000000005, .01975439999999995, .18944850000000002, -.00005704024752377288
.98024560000000005, .01975439999999995, .23434010000000005, -1.775776417611173e-06
.98024560000000005, .01975439999999995, .28287810000000002, .00007060789638839343
.98024560000000005, .01975439999999995, .33443230000000002, -2.004181892588016e-06
.98024560000000005, .01975439999999995, .3883067, -.00007288561802391933
.98024560000000005, .01975439999999995, .44375549999999997, -2.123424018140181e-06
.98024560000000005, .01975439999999995, .5, .00007927506332340838
.98024560000000005, .01975439999999995, .55624450000000003, -2.123424018140181e-06
.98024560000000005, .01975439999999995, .6116933, -.00007288561802391933
.98024560000000005, .01975439999999995, .66556769999999998, -2.004181892588016e-06
.98024560000000005, .01975439999999995, .71712189999999998, .00007060789638839343
.98024560000000005, .01975439999999995, .76565989999999995, -1.775776417611173e-06
.98024560000000005, .01975439999999995, .81055149999999998, -.00005704024752377288
.98024560000000005, .01975439999999995, .85124809999999995, -1.458133754671569e-06
.98024560000000005, .01975439999999995, .88729829999999998, .00004715590419562903
.98024560000000005, .01975439999999995, .91836300000000004, -1.080701227473609e-06
.98024560000000005, .01975439999999995, .9442296, -.0000309050555489491
.98024560000000005, .01975439999999995, .9648274, -6.819807470834638e-07
.98024560000000005, .01975439999999995, .98024560000000005, .00001864446081264499
.98024560000000005, .01975439999999995, .99076560000000002, -3.119223790098993e-07
.98024560000000005, .01975439999999995, .99691600000000002, -5.653080881163687e-06
.98024560000000005, .01975439999999995, .99954909999999997, -4.826584398056539e-08
.98024560000000005, .035172599999999998, .0030839999999999756, 7.997528325743406e-06
.98024560000000005, .035172599999999998, .01975439999999995, -6.819807470834503e-07
.98024560000000005, .035172599999999998, .055770399999999998, .00004371230776929634
.98024560000000005, .035172599999999998, .11270170000000002, -7.942614553527947e-07
.98024560000000005, .035172599999999998, .18944850000000002, .00008067805045376976
.98024560000000005, .035172599999999998, .28287810000000002, -1.340815247339878e-06
.98024560000000005, .035172599999999998, .3883067, .00010308983259297734
.98024560000000005, .035172599999999998, .5, -1.444677624032578e-06
.98024560000000005, .035172599999999998, .6116933, .00010308983259297734
.98024560000000005, .035172599999999998, .71712189999999998, -1.340815247339878e-06
.98024560000000005, .035172599999999998, .81055149999999998, .00008067805045376976
.98024560000000005, .035172599999999998, .88729829999999998, -7.942614553527947e-07
.98024560000000005, .035172599999999998, .9442296, .00004371230776929634
.98024560000000005, .035172599999999998, .98024560000000005, -6.819807470834503e-07
.98024560000000005, .035172599999999998, .99691600000000002, 7.997528325743406e-06
.98024560000000005, .055770399999999998, .00045090000000003183, 3.093652476035545e-06
.98024560000000005, .055770399999999998, .0030839999999999756, -.00001055828041596288
.98024560000000005, .055770399999999998, .009234399999999976, .000019993008731877
.98024560000000005, .055770399999999998, .01975439999999995, -.00003090505554894884
.98024560000000005, .055770399999999998, .035172599999999998, .00004371230776929634
.98024560000000005, .055770399999999998, .055770399999999998, -.00005726911864240712
.98024560000000005, .055770399999999998, .08163699999999996, .0000692687364914787
.98024560000000005, .055770399999999998, .11270170000000002, -.00008055474779107317
.98024560000000005, .055770399999999998, .14875190000000005, .00009346069038691542
.98024560000000005, .055770399999999998, .18944850000000002, -.00010569751670306079
.98024560000000005, .055770399999999998, .23434010000000005, .0001138203470230569
.98024560000000005, .055770399999999998, .28287810000000002, -.00012023125138547517
.98024560000000005, .055770399999999998, .33443230000000002, .00012846024772562907
.98024560000000005, .055770399999999998, .3883067, -.00013505952661381637
.98024560000000005, .055770399999999998, .44375549999999997, .00013610320321008189
.98024560000000005, .055770399999999998, .5, -.00013514432326727606
.98024560000000005, .055770399999999998, .55624450000000003, .00013610320321008189
.98024560000000005, .055770399999999998, .6116933, -.00013505952661381637
.98024560000000005, .055770399999999998, .66556769999999998, .00012846024772562907
.98024560000000005, .055770399999999998, .71712189999999998, -.00012023125138547517
.98024560000000005, .055770399999999998, .76565989999999995, .0001138203470230569
.98024560000000005, .055770399999999998, .81055149999999998, -.00010569751670306079
.98024560000000005, .055770399999999998, .85124809999999995, .00009346069038691542
.98024560000000005, .055770399999999998, .88729829999999998, -.00008055474779107317
.98024560000000005, .055770399999999998, .91836300000000004, .0000692687364914787
.98024560000000005, .055770399999999998, .9442296, -.00005726911864240712
.98024560000000005, .055770399999999998, .9648274, .00004371230776929634
.98024560000000005, .055770399999999998, .98024560000000005, -.00003090505554894884
.98024560000000005, .055770399999999998, .99076560000000002, .000019993008731877
.98024560000000005, .055770399999999998, .99691600000000002, -.00001055828041596288
.98024560000000005, .055770399999999998, .99954909999999997, 3.093652476035545e-06
.98024560000000005, .08163699999999996, .0030839999999999756, .00001267328838145153
.98024560000000005, .08163699999999996, .01975439999999995, -1.080701227473576e-06
.98024560000000005, .08163699999999996, .055770399999999998, .0000692687364914787
.98024560000000005, .08163699999999996, .11270170000000002, -1.258626923713910e-06
.98024560000000005, .08163699999999996, .18944850000000002, .00012784652430210416
.98024560000000005, .08163699999999996, .28287810000000002, -2.124723740094998e-06
.98024560000000005, .08163699999999996, .3883067, .00016336136921714739
.98024560000000005, .08163699999999996, .5, -2.289309321817707e-06
.98024560000000005, .08163699999999996, .6116933, .00016336136921714739
.98024560000000005, .08163699999999996, .71712189999999998, -2.124723740094998e-06
.98024560000000005, .08163699999999996, .81055149999999998, .00012784652430210416
.98024560000000005, .08163699999999996, .88729829999999998, -1.258626923713910e-06
.98024560000000005, .08163699999999996, .9442296, .0000692687364914787
.98024560000000005, .08163699999999996, .98024560000000005, -1.080701227473576e-06
.98024560000000005, .08163699999999996, .99691600000000002, .00001267328838145153
.98024560000000005, .11270170000000002, .00045090000000003183, -5.621228993303274e-08
.98024560000000005, .11270170000000002, .0030839999999999756, -.00001473669624176179
.98024560000000005, .11270170000000002, .009234399999999976, -3.632770041804032e-07
.98024560000000005, .11270170000000002, .01975439999999995, .00004715590419562923
.98024560000000005, .11270170000000002, .035172599999999998, -7.942614553536621e-07
.98024560000000005, .11270170000000002, .055770399999999998, -.00008055474779106937
.98024560000000005, .11270170000000002, .08163699999999996, -1.258626923715116e-06
.98024560000000005, .11270170000000002, .11270170000000002, .00011921495143265491
.98024560000000005, .11270170000000002, .14875190000000005, -1.698199609058899e-06
.98024560000000005, .11270170000000002, .18944850000000002, -.00014867669459505637
.98024560000000005, .11270170000000002, .23434010000000005, -2.068138679668854e-06
.98024560000000005, .11270170000000002, .28287810000000002, .00017851248080833415
.98024560000000005, .11270170000000002, .33443230000000002, -2.334148630449187e-06
.98024560000000005, .11270170000000002, .3883067, -.00018997801099651971
.98024560000000005, .11270170000000002, .44375549999999997, -2.473022674305196e-06
.98024560000000005, .11270170000000002, .5, .00020042160386893042
.98024560000000005, .11270170000000002, .55624450000000003, -2.473022674305196e-06
.98024560000000005, .11270170000000002, .6116933, -.00018997801099651971
.98024560000000005, .11270170000000002, .66556769999999998, -2.334148630449187e-06
.98024560000000005, .11270170000000002, .71712189999999998, .00017851248080833415
.98024560000000005, .11270170000000002, .76565989999999995, -2.068138679668854e-06
.98024560000000005, .11270170000000002, .81055149999999998, -.00014867669459505637
.98024560000000005, .11270170000000002, .85124809999999995, -1.698199609058899e-06
.98024560000000005, .11270170000000002, .88729829999999998, .00011921495143265491
.98024560000000005, .11270170000000002, .91836300000000004, -1.258626923715116e-06
.98024560000000005, .11270170000000002, .9442296, -.00008055474779106937
.98024560000000005, .11270170000000002, .9648274, -7.942614553536621e-07
.98024560000000005, .11270170000000002, .98024560000000005, .00004715590419562923
.98024560000000005, .11270170000000002, .99076560000000002, -3.632770041804032e-07
.98024560000000005, .11270170000000002, .99691600000000002, -.00001473669624176179
.98024560000000005, .11270170000000002, .99954909999999997, -5.621228993303274e-08
.98024560000000005, .14875190000000005, .0030839999999999756, .00001709940647969872
.98024560000000005, .14875190000000005, .01975439999999995, -1.458133754671738e-06
.98024560000000005, .14875190000000005, .055770399999999998, .00009346069038691542
.98024560000000005, .14875190000000005, .11270170000000002, -1.698199609061881e-06
.98024560000000005, .14875190000000005, .18944850000000002, .00017249664177593468
.98024560000000005, .14875190000000005, .28287810000000002, -2.866778833985962e-06
.98024560000000005, .14875190000000005, .3883067, .0002204149681792537
.98024560000000005, .14875190000000005, .5, -3.088845568193009e-06
.98024560000000005, .14875190000000005, .6116933, .0002204149681792537
.98024560000000005, .14875190000000005, .71712189999999998, -2.866778833985962e-06
.98024560000000005, .14875190000000005, .81055149999999998, .00017249664177593468
.98024560000000005, .14875190000000005, .88729829999999998, -1.698199609061881e-06
.98024560000000005, .14875190000000005, .9442296, .00009346069038691542
.98024560000000005, .14875190000000005, .98024560000000005, -1.458133754671738e-06
.98024560000000005, .14875190000000005, .99691600000000002, .00001709940647969872
.98024560000000005, .18944850000000002, .00045090000000003183, 5.709830097859490e-06
.98024560000000005, .18944850000000002, .0030839999999999756, -.00001948666561371206
.98024560000000005, .18944850000000002, .009234399999999976, .00003690029306405108
.98024560000000005, .18944850000000002, .01975439999999995, -.00005704024752377257
.98024560000000005, .18944850000000002, .035172599999999998, .00008067805045376976
.98024560000000005, .18944850000000002, .055770399999999998, -.00010569751670305952
.98024560000000005, .18944850000000002, .08163699999999996, .00012784652430210416
.98024560000000005, .18944850000000002, .11270170000000002, -.0001486766945950622
.98024560000000005, .18944850000000002, .14875190000000005, .00017249664177593465
.98024560000000005, .18944850000000002, .18944850000000002, -.0001950783476122687
.98024560000000005, .18944850000000002, .23434010000000005, .00021007364214803127
.98024560000000005, .18944850000000002, .28287810000000002, -.0002219060458516276
.98024560000000005, .18944850000000002, .33443230000000002, .00023709391876563691
.98024560000000005, .18944850000000002, .3883067, -.00024926970947801051
.98024560000000005, .18944850000000002, .44375549999999997, .0002512002146730727
.98024560000000005, .18944850000000002, .5, -.00024943050780587512
.98024560000000005, .18944850000000002, .55624450000000003, .0002512002146730727
.98024560000000005, .18944850000000002, .6116933, -.00024926970947801051
.98024560000000005, .18944850000000002, .66556769999999998, .00023709391876563691
.98024560000000005, .18944850000000002, .71712189999999998, -.0002219060458516276
.98024560000000005, .18944850000000002, .76565989999999995, .00021007364214803127
.98024560000000005, .18944850000000002, .81055149999999998, -.0001950783476122687
.98024560000000005, .18944850000000002, .85124809999999995, .00017249664177593465
.98024560000000005, .18944850000000002, .88729829999999998, -.0001486766945950622
.98024560000000005, .18944850000000002, .91836300000000004, .00012784652430210416
.98024560000000005, .18944850000000002, .9442296, -.00010569751670305952
.98024560000000005, .18944850000000002, .9648274, .00008067805045376976
.98024560000000005, .18944850000000002, .98024560000000005, -.00005704024752377257
.98024560000000005, .18944850000000002, .99076560000000002, .00003690029306405108
.98024560000000005, .18944850000000002, .99691600000000002, -.00001948666561371206
.98024560000000005, .18944850000000002, .99954909999999997, 5.709830097859490e-06
.98024560000000005, .23434010000000005, .0030839999999999756, .00002082437409086477
.98024560000000005, .23434010000000005, .01975439999999995, -1.775776417611173e-06
.98024560000000005, .23434010000000005, .055770399999999998, .00011382034702305689
.98024560000000005, .23434010000000005, .11270170000000002, -2.068138679667228e-06
.98024560000000005, .23434010000000005, .18944850000000002, .00021007364214803127
.98024560000000005, .23434010000000005, .28287810000000002, -3.491283451597380e-06
.98024560000000005, .23434010000000005, .3883067, .00026843058898215672
.98024560000000005, .23434010000000005, .5, -3.761725630491806e-06
.98024560000000005, .23434010000000005, .6116933, .00026843058898215672
.98024560000000005, .23434010000000005, .71712189999999998, -3.491283451597380e-06
.98024560000000005, .23434010000000005, .81055149999999998, .00021007364214803127
.98024560000000005, .23434010000000005, .88729829999999998, -2.068138679667228e-06
.98024560000000005, .23434010000000005, .9442296, .00011382034702305689
.98024560000000005, .23434010000000005, .98024560000000005, -1.775776417611173e-06
.98024560000000005, .23434010000000005, .99691600000000002, .00002082437409086477
.98024560000000005, .28287810000000002, .00045090000000003183, -9.489355793637020e-08
.98024560000000005, .28287810000000002, .0030839999999999756, -.00002199483526342555
.98024560000000005, .28287810000000002, .009234399999999976, -6.132581946801125e-07
.98024560000000005, .28287810000000002, .01975439999999995, .00007060789638838463
.98024560000000005, .28287810000000002, .035172599999999998, -1.340815247340014e-06
.98024560000000005, .28287810000000002, .055770399999999998, -.0001202312513854794
.98024560000000005, .28287810000000002, .08163699999999996, -2.124723740095297e-06
.98024560000000005, .28287810000000002, .11270170000000002, .00017851248080837044
.98024560000000005, .28287810000000002, .14875190000000005, -2.866778833986179e-06
.98024560000000005, .28287810000000002, .18944850000000002, -.00022190604585163145
.98024560000000005, .28287810000000002, .23434010000000005, -3.491283451596729e-06
.98024560000000005, .28287810000000002, .28287810000000002, .00026730323580898246
.98024560000000005, .28287810000000002, .33443230000000002, -3.940342379923801e-06
.98024560000000005, .28287810000000002, .3883067, -.00028354994933003582
.98024560000000005, .28287810000000002, .44375549999999997, -4.174779584711574e-06
.98024560000000005, .28287810000000002, .5, .00030011034045005072
.98024560000000005, .28287810000000002, .55624450000000003, -4.174779584711574e-06
.98024560000000005, .28287810000000002, .6116933, -.00028354994933003582
.98024560000000005, .28287810000000002, .66556769999999998, -3.940342379923801e-06
.98024560000000005, .28287810000000002, .71712189999999998, .00026730323580898246
.98024560000000005, .28287810000000002, .76565989999999995, -3.491283451596729e-06
.98024560000000005, .28287810000000002, .81055149999999998, -.00022190604585163145
.98024560000000005, .28287810000000002, .85124809999999995, -2.866778833986179e-06
.98024560000000005, .28287810000000002, .88729829999999998, .00017851248080837044
.98024560000000005, .28287810000000002, .91836300000000004, -2.124723740095297e-06
.98024560000000005, .28287810000000002, .9442296, -.0001202312513854794
.98024560000000005, .28287810000000002, .9648274, -1.340815247340014e-06
.98024560000000005, .28287810000000002, .98024560000000005, .00007060789638838463
.98024560000000005, .28287810000000002, .99076560000000002, -6.132581946801125e-07
.98024560000000005, .28287810000000002, .99691600000000002, -.00002199483526342555
.98024560000000005, .28287810000000002, .99954909999999997, -9.489355793637020e-08
.98024560000000005, .33443230000000002, .0030839999999999756, .00002350286503608847
.98024560000000005, .33443230000000002, .01975439999999995, -2.004181892587880e-06
.98024560000000005, .33443230000000002, .055770399999999998, .00012846024772562907
.98024560000000005, .33443230000000002, .11270170000000002, -2.334148630448509e-06
.98024560000000005, .33443230000000002, .18944850000000002, .00023709391876563691
.98024560000000005, .33443230000000002, .28287810000000002, -3.940342379922175e-06
.98024560000000005, .33443230000000002, .3883067, .00030295690410080312
.98024560000000005, .33443230000000002, .5, -4.245569610423540e-06
.98024560000000005, .33443230000000002, .6116933, .00030295690410080312
.98024560000000005, .33443230000000002, .71712189999999998, -3.940342379922175e-06
.98024560000000005, .33443230000000002, .81055149999999998, .00023709391876563691
.98024560000000005, .33443230000000002, .88729829999999998, -2.334148630448509e-06
.98024560000000005, .33443230000000002, .9442296, .00012846024772562907
.98024560000000005, .33443230000000002, .98024560000000005, -2.004181892587880e-06
.98024560000000005, .33443230000000002, .99691600000000002, .00002350286503608847
.98024560000000005, .3883067, .00045090000000003183, 7.295979831093876e-06
.98024560000000005, .3883067, .0030839999999999756, -.00002489992116336561
.98024560000000005, .3883067, .009234399999999976, .00004715092907189951
.98024560000000005, .3883067, .01975439999999995, -.00007288561802391981
.98024560000000005, .3883067, .035172599999999998, .00010308983259297735
.98024560000000005, .3883067, .055770399999999998, -.0001350595266138181
.98024560000000005, .3883067, .08163699999999996, .00016336136921714739
.98024560000000005, .3883067, .11270170000000002, -.0001899780109965099
.98024560000000005, .3883067, .14875190000000005, .0002204149681792537
.98024560000000005, .3883067, .18944850000000002, -.00024926970947800948
.98024560000000005, .3883067, .23434010000000005, .00026843058898215672
.98024560000000005, .3883067, .28287810000000002, -.00028354994933002103
.98024560000000005, .3883067, .33443230000000002, .00030295690410080312
.98024560000000005, .3883067, .3883067, -.00031851504189870359
.98024560000000005, .3883067, .44375549999999997, .00032098182755179616
.98024560000000005, .3883067, .5, -.00031872050884546618
.98024560000000005, .3883067, .55624450000000003, .00032098182755179616
.98024560000000005, .3883067, .6116933, -.00031851504189870359
.98024560000000005, .3883067, .66556769999999998, .00030295690410080312
.98024560000000005, .3883067, .71712189999999998, -.00028354994933002103
.98024560000000005, .3883067, .76565989999999995, .00026843058898215672
.98024560000000005, .3883067, .81055149999999998, -.00024926970947800948
.98024560000000005, .3883067, .85124809999999995, .0002204149681792537
.98024560000000005, .3883067, .88729829999999998, -.0001899780109965099
.98024560000000005, .3883067, .91836300000000004, .00016336136921714739
.98024560000000005, .3883067, .9442296, -.0001350595266138181
.98024560000000005, .3883067, .9648274, .00010308983259297735
.98024560000000005, .3883067, .98024560000000005, -.00007288561802391981
.98024560000000005, .3883067, .99076560000000002, .00004715092907189951
.98024560000000005, .3883067, .99691600000000002, -.00002489992116336561
.98024560000000005, .3883067, .99954909999999997, 7.295979831093876e-06
.98024560000000005, .44375549999999997, .0030839999999999756, .00002490120696994174
.98024560000000005, .44375549999999997, .01975439999999995, -2.123424018140249e-06
.98024560000000005, .44375549999999997, .055770399999999998, .00013610320321008189
.98024560000000005, .44375549999999997, .11270170000000002, -2.473022674308991e-06
.98024560000000005, .44375549999999997, .18944850000000002, .0002512002146730727
.98024560000000005, .44375549999999997, .28287810000000002, -4.174779584711682e-06
.98024560000000005, .44375549999999997, .3883067, .00032098182755179616
.98024560000000005, .44375549999999997, .5, -4.498166815504992e-06
.98024560000000005, .44375549999999997, .6116933, .00032098182755179616
.98024560000000005, .44375549999999997, .71712189999999998, -4.174779584711682e-06
.98024560000000005, .44375549999999997, .81055149999999998, .0002512002146730727
.98024560000000005, .44375549999999997, .88729829999999998, -2.473022674308991e-06
.98024560000000005, .44375549999999997, .9442296, .00013610320321008189
.98024560000000005, .44375549999999997, .98024560000000005, -2.123424018140249e-06
.98024560000000005, .44375549999999997, .99691600000000002, .00002490120696994174
.98024560000000005, .5, .00045090000000003183, -1.022442130542088e-07
.98024560000000005, .5, .0030839999999999756, -.00002472311405097223
.98024560000000005, .5, .009234399999999976, -6.607624677358049e-07
.98024560000000005, .5, .01975439999999995, .0000792750633234453
.98024560000000005, .5, .035172599999999998, -1.444677624033798e-06
.98024560000000005, .5, .055770399999999998, -.00013514432326726316
.98024560000000005, .5, .08163699999999996, -2.289309321813641e-06
.98024560000000005, .5, .11270170000000002, .00020042160386889534
.98024560000000005, .5, .14875190000000005, -3.088845568189323e-06
.98024560000000005, .5, .18944850000000002, -.00024943050780590537
.98024560000000005, .5, .23434010000000005, -3.761725630499125e-06
.98024560000000005, .5, .28287810000000002, .00030011034045008216
.98024560000000005, .5, .33443230000000002, -4.245569610425384e-06
.98024560000000005, .5, .3883067, -.00031872050884545122
.98024560000000005, .5, .44375549999999997, -4.498166815509545e-06
.98024560000000005, .5, .5, .00033694376075701948
.98024560000000005, .5, .55624450000000003, -4.498166815509545e-06
.98024560000000005, .5, .6116933, -.00031872050884545122
.98024560000000005, .5, .66556769999999998, -4.245569610425384e-06
.98024560000000005, .5, .71712189999999998, .00030011034045008216
.98024560000000005, .5, .76565989999999995, -3.761725630499125e-06
.98024560000000005, .5, .81055149999999998, -.00024943050780590537
.98024560000000005, .5, .85124809999999995, -3.088845568189323e-06
.98024560000000005, .5, .88729829999999998, .00020042160386889534
.98024560000000005, .5, .91836300000000004, -2.289309321813641e-06
.98024560000000005, .5, .9442296, -.00013514432326726316
.98024560000000005, .5, .9648274, -1.444677624033798e-06
.98024560000000005, .5, .98024560000000005, .0000792750633234453
.98024560000000005, .5, .99076560000000002, -6.607624677358049e-07
.98024560000000005, .5, .99691600000000002, -.00002472311405097223
.98024560000000005, .5, .99954909999999997, -1.022442130542088e-07
.98024560000000005, .55624450000000003, .0030839999999999756, .00002490120696994174
.98024560000000005, .55624450000000003, .01975439999999995, -2.123424018140249e-06
.98024560000000005, .55624450000000003, .055770399999999998, .00013610320321008189
.98024560000000005, .55624450000000003, .11270170000000002, -2.473022674308991e-06
.98024560000000005, .55624450000000003, .18944850000000002, .0002512002146730727
.98024560000000005, .55624450000000003, .28287810000000002, -4.174779584711682e-06
.98024560000000005, .55624450000000003, .3883067, .00032098182755179616
.98024560000000005, .55624450000000003, .5, -4.498166815504992e-06
.98024560000000005, .55624450000000003, .6116933, .00032098182755179616
.98024560000000005, .55624450000000003, .71712189999999998, -4.174779584711682e-06
.98024560000000005, .55624450000000003, .81055149999999998, .0002512002146730727
.98024560000000005, .55624450000000003, .88729829999999998, -2.473022674308991e-06
.98024560000000005, .55624450000000003, .9442296, .00013610320321008189
.98024560000000005, .55624450000000003, .98024560000000005, -2.123424018140249e-06
.98024560000000005, .55624450000000003, .99691600000000002, .00002490120696994174
.98024560000000005, .6116933, .00045090000000003183, 7.295979831093876e-06
.98024560000000005, .6116933, .0030839999999999756, -.00002489992116336561
.98024560000000005, .6116933, .009234399999999976, .00004715092907189951
