.61930959304159849, .96863669620035298, -.0082313135351224677
.61930959304159849, .9722875115366163, .0072823228317870524
.61930959304159849, .99399625901024269, -.0035974676158170883
.61930959304159849, .99470046749582497, .003176253529169561
.62594311284575277, .069431844202973769, .014286092703282885
.62594311284575277, .1127016653792583, -.022816178298032321
.62594311284575277, .33000947820757187, .026783028233175386
.62594311284575277, .5, -.036505885276851897
.62594311284575277, .66999052179242813, .026783028233175386
.62594311284575277, .8872983346207417, -.022816178298032321
.62594311284575277, .93056815579702623, .014286092703282885
.63477157797617245, .010885670926971569, .0036574881061257943
.63477157797617245, .013046735741414128, -.0043803830682324013
.63477157797617245, .056468700115952286, .0082507729491632653
.63477157797617245, .067468316655507676, -.0098191234349901298
.63477157797617245, .13492399721297532, .012239478507395351
.63477157797617245, .16029521585048778, -.014394222927355
.63477157797617245, .24045193539659415, .015321095271557058
.63477157797617245, .28330230293537639, -.01769112938000816
.63477157797617245, .36522842202382755, .017266557153809706
.63477157797617245, .42556283050918442, -.019416277316976281
.63477157797617245, .5, .017931488279021583
.63477157797617245, .57443716949081558, -.019416277316976281
.63477157797617245, .63477157797617245, .017266557153809706
.63477157797617245, .71669769706462361, -.01769112938000816
.63477157797617245, .75954806460340585, .015321095271557058
.63477157797617245, .83970478414951222, -.014394222927355
.63477157797617245, .86507600278702468, .012239478507395351
.63477157797617245, .93253168334449232, -.0098191234349901298
.63477157797617245, .94353129988404771, .0082507729491632653
.63477157797617245, .98695326425858587, -.0043803830682324013
.63477157797617245, .98911432907302843, .0036574881061257943
.64080177538962946, .033765242898423975, .0078211093473183387
.64080177538962946, .046910077030668074, -.010815914581803823
.64080177538962946, .16939530676686765, .016469073813892367
.64080177538962946, .2307653449471585, -.021849807442899171
.64080177538962946, .38069040695840151, .021360670600020316
.64080177538962946, .5, -.02597026347305606
.64080177538962946, .61930959304159849, .021360670600020316
.64080177538962946, .7692346550528415, -.021849807442899171
.64080177538962946, .83060469323313235, .016469073813892367
.64080177538962946, .95308992296933193, -.010815914581803823
.64080177538962946, .96623475710157603, .0078211093473183387
.64401065840120053, .5, .069943697395536686
.65828204998181494, .1127016653792583, .021217505842480503
.65828204998181494, .21132486540518713, -.038191510516464994
.65828204998181494, .5, .033948009347968981
.65828204998181494, .78867513459481287, -.038191510516464994
.65828204998181494, .8872983346207417, .021217505842480503
.65955618446394482, .019855071751231912, .0051929850328848726
.65955618446394482, .025446043828620812, -.0066425290332136986
.65955618446394482, .10166676129318652, .011408061657646348
.65955618446394482, .12923440720030277, -.014348779157040935
.65955618446394482, .2372337950418355, .016093030448325909
.65955618446394482, .29707742431130146, -.019587734941568995
.65955618446394482, .40828267875217505, .018605538791466942
.65955618446394482, .5, -.021441145597000912
.65955618446394482, .59171732124782495, .018605538791466942
.65955618446394482, .70292257568869854, -.019587734941568995
.65955618446394482, .7627662049581645, .016093030448325909
.65955618446394482, .87076559279969723, -.014348779157040935
.65955618446394482, .89833323870681348, .011408061657646348
.65955618446394482, .97455395617137919, -.0066425290332136986
.65955618446394482, .98014492824876809, .0051929850328848726
.66212671170190451, .0079084726407059325, .0031612651388297414
.66212671170190451, .0092196828766404337, -.0036837696071762367
.66212671170190451, .041200800388510928, .0071934703017139607
.66212671170190451, .047941371814762546, -.0083505464738164847
.66212671170190451, .099210954633345061, .01084418374885898
.66212671170190451, .11504866290284765, -.012499999504490987
.66212671170190451, .17882533027982994, .013910844094354717
.66212671170190451, .20634102285669131, -.015864687971672294
.66212671170190451, .27575362448177665, .016227683752538503
.66212671170190451, .31608425050090994, -.018232677824602965
.66212671170190451, .38477084202243261, .017669722484608172
.66212671170190451, .43738329574426549, -.019455087878242197
.66212671170190451, .5, .0181591994781942
.66212671170190451, .56261670425573451, -.019455087878242197
.66212671170190451, .61522915797756739, .017669722484608172
.66212671170190451, .68391574949909006, -.018232677824602965
.66212671170190451, .72424637551822335, .016227683752538503
.66212671170190451, .79365897714330869, -.015864687971672294
.66212671170190451, .82117466972017006, .013910844094354717
.66212671170190451, .88495133709715235, -.012499999504490987
.66212671170190451, .90078904536665494, .01084418374885898
.66212671170190451, .95205862818523745, -.0083505464738164847
.66212671170190451, .95879919961148907, .0071934703017139607
.66212671170190451, .99078031712335957, -.0036837696071762367
.66212671170190451, .99209152735929407, .0031612651388297414
.66999052179242813, .0042174157895344955, .0035241946221845565
.66999052179242813, .0047122623427913179, -.0039370496784689726
.66999052179242813, .022088025214301199, .0081052755470080035
.66999052179242813, .024662239115616158, -.0090419158430507674
.66999052179242813, .053698766751222093, .01246016742313958
.66999052179242813, .059880423136507099, -.013863978028305428
.66999052179242813, .098147520513738429, .016457216246459308
.66999052179242813, .10924299805159932, -.018241127213640115
.66999052179242813, .15415647846982339, .019980946065017283
.66999052179242813, .17116442039165469, -.022032131985617362
.66999052179242813, .22011458446302623, .022929898842053032
.66999052179242813, .24365473145676153, -.025115049178339031
.66999052179242813, .29412441926857869, .025219215353770454
.66999052179242813, .32438411827306179, -.027390765304590513
.66999052179242813, .37405688715424723, .026783028233175386
.66999052179242813, .41075790925207611, -.02878612820862712
.66999052179242813, .45761249347913235, .027576346382830078
.66999052179242813, .5, -.029256286549996652
.66999052179242813, .54238750652086765, .027576346382830078
.66999052179242813, .58924209074792389, -.02878612820862712
.66999052179242813, .62594311284575277, .026783028233175386
.66999052179242813, .67561588172693821, -.027390765304590513
.66999052179242813, .70587558073142131, .025219215353770454
.66999052179242813, .75634526854323847, -.025115049178339031
.66999052179242813, .77988541553697377, .022929898842053032
.66999052179242813, .82883557960834531, -.022032131985617362
.66999052179242813, .84584352153017661, .019980946065017283
.66999052179242813, .89075700194840068, -.018241127213640115
.66999052179242813, .90185247948626157, .016457216246459308
.66999052179242813, .9401195768634929, -.013863978028305428
.66999052179242813, .94630123324877791, .01246016742313958
.66999052179242813, .97533776088438384, -.0090419158430507674
.66999052179242813, .9779119747856988, .0081052755470080035
.66999052179242813, .99528773765720868, -.0039370496784689726
.66999052179242813, .9957825842104655, .0035241946221845565
.67561588172693821, .046910077030668074, .0099511721501471563
.67561588172693821, .069431844202973769, -.01461026023452208
.67561588172693821, .2307653449471585, .020102895013395548
.67561588172693821, .33000947820757187, -.027390765304590513
.67561588172693821, .5, .023893916751139783
.67561588172693821, .66999052179242813, -.027390765304590513
.67561588172693821, .7692346550528415, .020102895013395548
.67561588172693821, .93056815579702623, -.01461026023452208
.67561588172693821, .95308992296933193, .0099511721501471563
.68391574949909006, .013046735741414128, .0038918153242641735
.68391574949909006, .015919880246186957, -.0047442407735365502
.68391574949909006, .067468316655507676, .0087239436505621593
.68391574949909006, .081984446336682115, -.010544999315407751
.68391574949909006, .16029521585048778, .012788757626204661
.68391574949909006, .19331428364970482, -.015212663138037267
.68391574949909006, .28330230293537639, .015717942324263188
.68391574949909006, .33787328829809549, -.018232677824602965
.68391574949909006, .42556283050918442, .017250675209294752
.68391574949909006, .5, -.019277106166008768
.68391574949909006, .57443716949081558, .017250675209294752
.68391574949909006, .66212671170190451, -.018232677824602965
.68391574949909006, .71669769706462361, .015717942324263188
.68391574949909006, .80668571635029518, -.015212663138037267
.68391574949909006, .83970478414951222, .012788757626204661
.68391574949909006, .91801555366331788, -.010544999315407751
.68391574949909006, .93253168334449232, .0087239436505621593
.68391574949909006, .98408011975381304, -.0047442407735365502
.68391574949909006, .98695326425858587, .0038918153242641735
.68685304435770977, .21132486540518713, .035524027329595607
.68685304435770977, .5, -.071048054659191215
.68685304435770977, .78867513459481287, .035524027329595607
.69707567353878175, .025446043828620812, .0060262626972442277
.69707567353878175, .033765242898423975, -.0079734847071159382
.69707567353878175, .12923440720030277, .013017558847347142
.69707567353878175, .16939530676686765, -.016789933801457366
.69707567353878175, .29707742431130146, .017770466009506568
.69707567353878175, .38069040695840151, -.02177683149531736
.69707567353878175, .5, .019451924899585461
.69707567353878175, .61930959304159849, -.02177683149531736
.69707567353878175, .70292257568869854, .017770466009506568
.69707567353878175, .83060469323313235, -.016789933801457366
.69707567353878175, .87076559279969723, .013017558847347142
.69707567353878175, .96623475710157603, -.0079734847071159382
.69707567353878175, .97455395617137919, .0060262626972442277
.70292257568869854, .0060037409897573113, .0029356279861431946
.70292257568869854, .0068580956515937874, -.0033524163280461011
.70292257568869854, .031363303799647024, .0067169678665575522
.70292257568869854, .035782558168213185, -.0076516916171513382
.70292257568869854, .075896708294786341, .010229152640767477
.70292257568869854, .08639934246511749, -.0115998604957681
.70292257568869854, .13779113431991497, .013323069750394434
.70292257568869854, .15635354759415732, -.015006223313894586
.70292257568869854, .21451391369573058, .015871644813637373
.70292257568869854, .24237568182092295, -.017711033919910146
.70292257568869854, .30292432646121825, .017770466009506568
.70292257568869854, .34044381553605518, -.019587734941568995
.70292257568869854, .3994029530012827, .018941776016064393
.70292257568869854, .44597252564632817, -.02054855200994123
.70292257568869854, .5, .01933761508641902
.70292257568869854, .55402747435367183, -.02054855200994123
.70292257568869854, .6005970469987173, .018941776016064393
.70292257568869854, .65955618446394482, -.019587734941568995
.70292257568869854, .69707567353878175, .017770466009506568
.70292257568869854, .75762431817907705, -.017711033919910146
.70292257568869854, .78548608630426942, .015871644813637373
.70292257568869854, .84364645240584268, -.015006223313894586
.70292257568869854, .86220886568008503, .013323069750394434
.70292257568869854, .91360065753488251, -.0115998604957681
.70292257568869854, .92410329170521366, .010229152640767477
.70292257568869854, .96421744183178681, -.0076516916171513382
.70292257568869854, .96863669620035298, .0067169678665575522
.70292257568869854, .99314190434840621, -.0033524163280461011
.70292257568869854, .99399625901024269, .0029356279861431946
.70587558073142131, .069431844202973769, .013451953427795964
.70587558073142131, .1127016653792583, -.021483982656425739
.70587558073142131, .33000947820757187, .025219215353770454
.70587558073142131, .5, -.034374372250281358
.70587558073142131, .66999052179242813, .025219215353770454
.70587558073142131, .8872983346207417, -.021483982656425739
.70587558073142131, .93056815579702623, .013451953427795964
.71217106010371944, .5, .066134469316668873
.71669769706462361, .0092196828766404337, .0031756870152851837
.71669769706462361, .010885670926971569, -.0037474231090148659
.71669769706462361, .047941371814762546, .0071988003689954418
.71669769706462361, .056468700115952286, -.0084536535238881085
.71669769706462361, .11504866290284765, .010775941589873741
.71669769706462361, .13492399721297532, -.012540438484019669
.71669769706462361, .20634102285669131, .013676556616093617
.71669769706462361, .24045193539659415, -.015697829988808341
.71669769706462361, .31608425050090994, .015717942324263188
.71669769706462361, .36522842202382755, -.01769112938000816
.71669769706462361, .43738329574426549, .016771751912988225
.71669769706462361, .5, -.018372410683520499
.71669769706462361, .56261670425573451, .016771751912988225
.71669769706462361, .63477157797617245, -.01769112938000816
.71669769706462361, .68391574949909006, .015717942324263188
.71669769706462361, .75954806460340585, -.015697829988808341
.71669769706462361, .79365897714330869, .013676556616093617
.71669769706462361, .86507600278702468, -.012540438484019669
.71669769706462361, .88495133709715235, .010775941589873741
.71669769706462361, .94353129988404771, -.0084536535238881085
.71669769706462361, .95205862818523745, .0071988003689954418
.71669769706462361, .98911432907302843, -.0037474231090148659
.71669769706462361, .99078031712335957, .0031756870152851837
.72424637551822335, .015919880246186957, .0042225305388198658
.72424637551822335, .019855071751231912, -.0052592285774523337
.72424637551822335, .081984446336682115, .0093853966876035842
.72424637551822335, .10166676129318652, -.011553586906816345
.72424637551822335, .19331428364970482, .01353977121807364
.72424637551822335, .2372337950418355, -.016298318808099392
.72424637551822335, .33787328829809549, .016227683752538503
.72424637551822335, .40828267875217505, -.018842877591854254
.72424637551822335, .5, .017157259374373457
.72424637551822335, .59171732124782495, -.018842877591854254
.72424637551822335, .66212671170190451, .016227683752538503
.72424637551822335, .7627662049581645, -.016298318808099392
.72424637551822335, .80668571635029518, .01353977121807364
.72424637551822335, .89833323870681348, -.011553586906816345
.72424637551822335, .91801555366331788, .0093853966876035842
.72424637551822335, .98014492824876809, -.0052592285774523337
.72424637551822335, .98408011975381304, .0042225305388198658
.72900838882861363, .033765242898423975, .0072451637044937608
.72900838882861363, .046910077030668074, -.010019431806800988
.72900838882861363, .16939530676686765, .015256293007072432
.72900838882861363, .2307653449471585, -.020240789996082798
.72900838882861363, .38069040695840151, .019787673137184561
.72900838882861363, .5, -.024057816091733939
.72900838882861363, .61930959304159849, .019787673137184561
.72900838882861363, .7692346550528415, -.020240789996082798
.72900838882861363, .83060469323313235, .015256293007072432
.72900838882861363, .95308992296933193, -.010019431806800988
.72900838882861363, .96623475710157603, .0072451637044937608
.7322853706879805, .1127016653792583, .019806486413000913
.7322853706879805, .21132486540518713, -.03565167554340172
.7322853706879805, .5, .031690378260801622
.7322853706879805, .78867513459481287, -.03565167554340172
.7322853706879805, .8872983346207417, .019806486413000913
.75543350097541362, .21132486540518713, .032922159612294187
.75543350097541362, .5, -.065844319224588374
.75543350097541362, .78867513459481287, .032922159612294187
.75634526854323847, .046910077030668074, .0091243955820094567
.75634526854323847, .069431844202973769, -.013396391090863638
.75634526854323847, .2307653449471585, .018432679455064375
.75634526854323847, .33000947820757187, -.025115049178339031
.75634526854323847, .5, .021908730464257682
.75634526854323847, .66999052179242813, -.025115049178339031
.75634526854323847, .7692346550528415, .018432679455064375
.75634526854323847, .93056815579702623, -.013396391090863638
.75634526854323847, .95308992296933193, .0091243955820094567
.75762431817907705, .019855071751231912, .0046954451005881614
.75762431817907705, .025446043828620812, -.0060061082801139958
.75762431817907705, .10166676129318652, .010315055190491392
.75762431817907705, .12923440720030277, -.012974022525715039
.75762431817907705, .2372337950418355, .014551157088590677
.75762431817907705, .29707742431130146, -.017711033919910146
.75762431817907705, .40828267875217505, .016822941989814363
.75762431817907705, .5, -.019386869287490845
.75762431817907705, .59171732124782495, .016822941989814363
.75762431817907705, .70292257568869854, -.017711033919910146
.75762431817907705, .7627662049581645, .014551157088590677
.75762431817907705, .87076559279969723, -.012974022525715039
.75762431817907705, .89833323870681348, .010315055190491392
.75762431817907705, .97455395617137919, -.0060061082801139958
.75762431817907705, .98014492824876809, .0046954451005881614
.75954806460340585, .010885670926971569, .0032453906838153948
.75954806460340585, .013046735741414128, -.0038868354424377153
.75954806460340585, .056468700115952286, .0073211397785936045
.75954806460340585, .067468316655507676, -.0087127806829440345
.75954806460340585, .13492399721297532, .010860428898218666
.75954806460340585, .16029521585048778, -.012772393411466963
.75954806460340585, .24045193539659415, .013594832961146264
.75954806460340585, .28330230293537639, -.015697829988808341
.75954806460340585, .36522842202382755, .015321095271557058
.75954806460340585, .42556283050918442, -.01722860162234079
.75954806460340585, .5, .015911107109333706
.75954806460340585, .57443716949081558, -.01722860162234079
.75954806460340585, .63477157797617245, .015321095271557058
.75954806460340585, .71669769706462361, -.015697829988808341
.75954806460340585, .75954806460340585, .013594832961146264
.75954806460340585, .83970478414951222, -.012772393411466963
.75954806460340585, .86507600278702468, .010860428898218666
.75954806460340585, .93253168334449232, -.0087127806829440345
.75954806460340585, .94353129988404771, .0073211397785936045
.75954806460340585, .98695326425858587, -.0038868354424377153
.75954806460340585, .98911432907302843, .0032453906838153948
.7627662049581645, .0068580956515937874, .0027543020264286545
.7627662049581645, .0079084726407059325, -.0031750253366576663
.7627662049581645, .035782558168213185, .0062865311657190042
.7627662049581645, .041200800388510928, -.0072247816818336082
.7627662049581645, .08639934246511749, .009530295805594351
.7627662049581645, .099210954633345061, -.010891385773084607
.7627662049581645, .15635354759415732, .012328919572644557
.7627662049581645, .17882533027982994, -.013971394525364311
.7627662049581645, .24237568182092295, .014551157088590677
.7627662049581645, .27575362448177665, -.016298318808099392
.7627662049581645, .34044381553605518, .016093030448325909
.7627662049581645, .38477084202243261, -.0177466343747139
.7627662049581645, .44597252564632817, .016882425362169228
.7627662049581645, .5, -.018238241939437804
.7627662049581645, .55402747435367183, .016882425362169228
.7627662049581645, .61522915797756739, -.0177466343747139
.7627662049581645, .65955618446394482, .016093030448325909
.7627662049581645, .72424637551822335, -.016298318808099392
.7627662049581645, .75762431817907705, .014551157088590677
.7627662049581645, .82117466972017006, -.013971394525364311
.7627662049581645, .84364645240584268, .012328919572644557
.7627662049581645, .90078904536665494, -.010891385773084607
.7627662049581645, .91360065753488251, .009530295805594351
.7627662049581645, .95879919961148907, -.0072247816818336082
.7627662049581645, .96421744183178681, .0062865311657190042
.7627662049581645, .99209152735929407, -.0031750253366576663
.7627662049581645, .99314190434840621, .0027543020264286545
.7692346550528415, .0047122623427913179, .0028895175241971088
.7692346550528415, .0052995325041750307, -.0032489863872587322
.7692346550528415, .024662239115616158, .0066361302026980689
.7692346550528415, .0277124884633837, -.007449080349163942
.7692346550528415, .059880423136507099, .010175184653359697
.7692346550528415, .067184398806084067, -.011386397983322616
.7692346550528415, .10924299805159932, .013387704258133425
.7692346550528415, .12229779582249845, -.014912749704435142
.7692346550528415, .17116442039165469, .016170035094050877
.7692346550528415, .19106187779867811, -.017900232309829241
.7692346550528415, .24365473145676153, .018432679455064375
.7692346550528415, .27099161117138637, -.020240789996082798
.7692346550528415, .32438411827306179, .020102895013395548
.7692346550528415, .35919822461037054, -.021849807442899171
.7692346550528415, .41075790925207611, .021126993232393958
.7692346550528415, .45249374508118123, -.022669123451850924
.7692346550528415, .5, .021472056383098983
.7692346550528415, .54750625491881877, -.022669123451850924
.7692346550528415, .58924209074792389, .021126993232393958
.7692346550528415, .64080177538962946, -.021849807442899171
.7692346550528415, .67561588172693821, .020102895013395548
.7692346550528415, .72900838882861363, -.020240789996082798
.7692346550528415, .75634526854323847, .018432679455064375
.7692346550528415, .80893812220132189, -.017900232309829241
.7692346550528415, .82883557960834531, .016170035094050877
.7692346550528415, .87770220417750155, -.014912749704435142
.7692346550528415, .89075700194840068, .013387704258133425
.7692346550528415, .93281560119391593, -.011386397983322616
.7692346550528415, .9401195768634929, .010175184653359697
.7692346550528415, .9722875115366163, -.007449080349163942
.7692346550528415, .97533776088438384, .0066361302026980689
.7692346550528415, .99470046749582497, -.0032489863872587322
.7692346550528415, .99528773765720868, .0028895175241971088
.77580941794360991, .5, .060915708026864378
.77988541553697377, .069431844202973769, .012230829825609711
.77988541553697377, .1127016653792583, -.01953373814870148
.77988541553697377, .33000947820757187, .022929898842053032
.77988541553697377, .5, -.031253981037922526
.77988541553697377, .66999052179242813, .022929898842053032
.77988541553697377, .8872983346207417, -.01953373814870148
.77988541553697377, .93056815579702623, .012230829825609711
.78548608630426942, .025446043828620812, .005382340622534329
.78548608630426942, .033765242898423975, -.0071214968212208159
.78548608630426942, .12923440720030277, .011626598326413473
.78548608630426942, .16939530676686765, -.014995885060001029
.78548608630426942, .29707742431130146, .015871644813637373
.78548608630426942, .38069040695840151, -.019449919573026771
.78548608630426942, .5, .017373435383326894
.78548608630426942, .61930959304159849, -.019449919573026771
.78548608630426942, .70292257568869854, .015871644813637373
.78548608630426942, .83060469323313235, -.014995885060001029
.78548608630426942, .87076559279969723, .011626598326413473
.78548608630426942, .96623475710157603, -.0071214968212208159
.78548608630426942, .97455395617137919, .005382340622534329
.78867513459481287, .0034357004074525577, .004403501784787653
.78867513459481287, .0037965780782078795, -.0048654470574312188
.78867513459481287, .01801403636104304, .010150357450096783
.78867513459481287, .019895923932584991, -.011203556691424916
.78867513459481287, .043882785874337027, .015668012083527291
.78867513459481287, .048422048192590994, -.017261135684410341
.78867513459481287, .080441514088890553, .020819185394176227
.78867513459481287, .088642671731428591, -.022872505405612573
.78867513459481287, .1268340467699246, .025482529954310169
.78867513459481287, .13951691133238531, -.02789166138683357
.78867513459481287, .18197315963674243, .029548632990379638
.78867513459481287, .19972734766915945, -.03218849063483413
.78867513459481287, .24456649902458638, .032922159612294187
.78867513459481287, .2677146293120195, -.03565167554340172
.78867513459481287, .31314695564229023, .035524027329595607
.78867513459481287, .34171795001818506, -.038191510516464994
.78867513459481287, .38610707442917747, .037293246618151012
.78867513459481287, .41982067717988736, -.039742210848488689
.78867513459481287, .46173673943325133, .03818834678268157
.78867513459481287, .5, -.040263612462195994
.78867513459481287, .53826326056674867, .03818834678268157
.78867513459481287, .58017932282011264, -.039742210848488689
.78867513459481287, .61389292557082253, .037293246618151012
.78867513459481287, .65828204998181494, -.038191510516464994
.78867513459481287, .68685304435770977, .035524027329595607
.78867513459481287, .7322853706879805, -.03565167554340172
.78867513459481287, .75543350097541362, .032922159612294187
.78867513459481287, .80027265233084055, -.03218849063483413
.78867513459481287, .81802684036325757, .029548632990379638
.78867513459481287, .86048308866761469, -.02789166138683357
.78867513459481287, .8731659532300754, .025482529954310169
.78867513459481287, .91135732826857141, -.022872505405612573
.78867513459481287, .91955848591110945, .020819185394176227
.78867513459481287, .95157795180740901, -.017261135684410341
.78867513459481287, .95611721412566297, .015668012083527291
.78867513459481287, .98010407606741501, -.011203556691424916
.78867513459481287, .98198596363895696, .010150357450096783
.78867513459481287, .99620342192179212, -.0048654470574312188
.78867513459481287, .99656429959254744, .004403501784787653
.79365897714330869, .013046735741414128, .0033863613648407258
.79365897714330869, .015919880246186957, -.0041280770854777915
.79365897714330869, .067468316655507676, .0075909115068035389
.79365897714330869, .081984446336682115, -.009175455487657358
.79365897714330869, .16029521585048778, .011127803125622306
.79365897714330869, .19331428364970482, -.013236901141172762
.79365897714330869, .28330230293537639, .013676556616093617
.79365897714330869, .33787328829809549, -.015864687971672294
.79365897714330869, .42556283050918442, .015010224067406481
.79365897714330869, .5, -.016773469989572899
.79365897714330869, .57443716949081558, .015010224067406481
.79365897714330869, .66212671170190451, -.015864687971672294
.79365897714330869, .71669769706462361, .013676556616093617
.79365897714330869, .80668571635029518, -.013236901141172762
.79365897714330869, .83970478414951222, .011127803125622306
.79365897714330869, .91801555366331788, -.009175455487657358
.79365897714330869, .93253168334449232, .0075909115068035389
.79365897714330869, .98408011975381304, -.0041280770854777915
.79365897714330869, .98695326425858587, .0033863613648407258
.80027265233084055, .1127016653792583, .017882494797130031
.80027265233084055, .21132486540518713, -.03218849063483413
.80027265233084055, .5, .028611991675408198
.80027265233084055, .78867513459481287, -.03218849063483413
.80027265233084055, .8872983346207417, .017882494797130031
.80668571635029518, .0079084726407059325, .0026376411687669748
.80668571635029518, .0092196828766404337, -.0030735993171827065
.80668571635029518, .041200800388510928, .0060019620565983844
.80668571635029518, .047941371814762546, -.0069673830551251681
.80668571635029518, .099210954633345061, .0090479805525748181
.80668571635029518, .11504866290284765, -.010429531170174946
.80668571635029518, .17882533027982994, .011606687026938768
.80668571635029518, .20634102285669131, -.013236901141172762
.80668571635029518, .27575362448177665, .01353977121807364
.80668571635029518, .31608425050090994, -.015212663138037267
.80668571635029518, .38477084202243261, .014742954298146298
.80668571635029518, .43738329574426549, -.0162325962790414
.80668571635029518, .5, .015151355559270739
.80668571635029518, .56261670425573451, -.0162325962790414
.80668571635029518, .61522915797756739, .014742954298146298
.80668571635029518, .68391574949909006, -.015212663138037267
.80668571635029518, .72424637551822335, .01353977121807364
.80668571635029518, .79365897714330869, -.013236901141172762
.80668571635029518, .82117466972017006, .011606687026938768
.80668571635029518, .88495133709715235, -.010429531170174946
.80668571635029518, .90078904536665494, .0090479805525748181
.80668571635029518, .95205862818523745, -.0069673830551251681
.80668571635029518, .95879919961148907, .0060019620565983844
.80668571635029518, .99078031712335957, -.0030735993171827065
.80668571635029518, .99209152735929407, .0026376411687669748
.80893812220132189, .033765242898423975, .0064073642114897827
.80893812220132189, .046910077030668074, -.0088608279118028224
.80893812220132189, .16939530676686765, .01349212106179014
.80893812220132189, .2307653449471585, -.017900232309829241
.80893812220132189, .38069040695840151, .017499511930864374
.80893812220132189, .5, -.021275873965024471
.80893812220132189, .61930959304159849, .017499511930864374
.80893812220132189, .7692346550528415, -.017900232309829241
.80893812220132189, .83060469323313235, .01349212106179014
.80893812220132189, .95308992296933193, -.0088608279118028224
.80893812220132189, .96623475710157603, .0064073642114897827
.81802684036325757, .21132486540518713, .029548632990379638
.81802684036325757, .5, -.059097265980759275
.81802684036325757, .78867513459481287, .029548632990379638
.82117466972017006, .015919880246186957, .0036196764063747672
.82117466972017006, .019855071751231912, -.0045083642196360792
.82117466972017006, .081984446336682115, .0080454359399568208
.82117466972017006, .10166676129318652, -.0099040718713882155
.82117466972017006, .19331428364970482, .011606687026938768
.82117466972017006, .2372337950418355, -.013971394525364311
.82117466972017006, .33787328829809549, .013910844094354717
.82117466972017006, .40828267875217505, -.016152664574098013
.82117466972017006, .5, .014707703445723088
.82117466972017006, .59171732124782495, -.016152664574098013
.82117466972017006, .66212671170190451, .013910844094354717
.82117466972017006, .7627662049581645, -.013971394525364311
.82117466972017006, .80668571635029518, .011606687026938768
.82117466972017006, .89833323870681348, -.0099040718713882155
.82117466972017006, .91801555366331788, .0080454359399568208
.82117466972017006, .98014492824876809, -.0045083642196360792
.82117466972017006, .98408011975381304, .0036196764063747672
.82883557960834531, .046910077030668074, .0080043597097631189
.82883557960834531, .069431844202973769, -.011751960131514099
.82883557960834531, .2307653449471585, .016170035094050877
.82883557960834531, .33000947820757187, -.022032131985617362
.82883557960834531, .5, .019219394626634929
.82883557960834531, .66999052179242813, -.022032131985617362
.82883557960834531, .7692346550528415, .016170035094050877
.82883557960834531, .93056815579702623, -.011751960131514099
.82883557960834531, .95308992296933193, .0080043597097631189
.83060469323313235, .0052995325041750307, .0024488909923773595
.83060469323313235, .0060037409897573113, -.0027736469897121424
.83060469323313235, .0277124884633837, .0056146698059741894
.83060469323313235, .031363303799647024, -.0063463414952475471
.83060469323313235, .067184398806084067, .0085823835908740414
.83060469323313235, .075896708294786341, -.0096647322355874234
.83060469323313235, .12229779582249845, .011240335929379536
.83060469323313235, .13779113431991497, -.012587934330008769
.83060469323313235, .19106187779867811, .01349212106179014
.83060469323313235, .21451391369573058, -.014995885060001029
.83060469323313235, .27099161117138637, .015256293007072432
.83060469323313235, .30292432646121825, -.016789933801457366
.83060469323313235, .35919822461037054, .016469073813892367
.83060469323313235, .3994029530012827, -.017896613697222043
.83060469323313235, .45249374508118123, .017086625060675334
.83060469323313235, .5, -.018270611305598167
.83060469323313235, .54750625491881877, .017086625060675334
.83060469323313235, .6005970469987173, -.017896613697222043
.83060469323313235, .64080177538962946, .016469073813892367
.83060469323313235, .69707567353878175, -.016789933801457366
.83060469323313235, .72900838882861363, .015256293007072432
.83060469323313235, .78548608630426942, -.014995885060001029
.83060469323313235, .80893812220132189, .01349212106179014
.83060469323313235, .86220886568008503, -.012587934330008769
.83060469323313235, .87770220417750155, .011240335929379536
.83060469323313235, .92410329170521366, -.0096647322355874234
.83060469323313235, .93281560119391593, .0085823835908740414
.83060469323313235, .96863669620035298, -.0063463414952475471
.83060469323313235, .9722875115366163, .0056146698059741894
.83060469323313235, .99399625901024269, -.0027736469897121424
.83060469323313235, .99470046749582497, .0024488909923773595
.83356940209870611, .5, .054398649583574377
.83970478414951222, .0092196828766404337, .0025838682123470215
.83970478414951222, .010885670926971569, -.0030490559689896322
.83970478414951222, .047941371814762546, .005857236985556318
.83970478414951222, .056468700115952286, -.006878236587369837
.83970478414951222, .11504866290284765, .0087677446795500907
.83970478414951222, .13492399721297532, -.010203411171123186
.83970478414951222, .20634102285669131, .011127803125622306
.83970478414951222, .24045193539659415, -.012772393411466963
.83970478414951222, .31608425050090994, .012788757626204661
.83970478414951222, .36522842202382755, -.014394222927355
.83970478414951222, .43738329574426549, .013646179999715416
.83970478414951222, .5, -.014948541125382391
.83970478414951222, .56261670425573451, .013646179999715416
.83970478414951222, .63477157797617245, -.014394222927355
.83970478414951222, .68391574949909006, .012788757626204661
.83970478414951222, .75954806460340585, -.012772393411466963
.83970478414951222, .79365897714330869, .011127803125622306
.83970478414951222, .86507600278702468, -.010203411171123186
.83970478414951222, .88495133709715235, .0087677446795500907
.83970478414951222, .94353129988404771, -.006878236587369837
.83970478414951222, .95205862818523745, .005857236985556318
.83970478414951222, .98911432907302843, -.0030490559689896322
.83970478414951222, .99078031712335957, .0025838682123470215
.84364645240584268, .019855071751231912, .0039783616279086016
.84364645240584268, .025446043828620812, -.0050888616952792344
.84364645240584268, .10166676129318652, .0087397507329965395
.84364645240584268, .12923440720030277, -.010992643353334297
.84364645240584268, .2372337950418355, .012328919572644557
.84364645240584268, .29707742431130146, -.015006223313894586
.84364645240584268, .40828267875217505, .014253759855998811
.84364645240584268, .5, -.016426126854080802
.84364645240584268, .59171732124782495, .014253759855998811
.84364645240584268, .70292257568869854, -.015006223313894586
.84364645240584268, .7627662049581645, .012328919572644557
.84364645240584268, .87076559279969723, -.010992643353334297
.84364645240584268, .89833323870681348, .0087397507329965395
.84364645240584268, .97455395617137919, -.0050888616952792344
.84364645240584268, .98014492824876809, .0039783616279086016
.84584352153017661, .069431844202973769, .010657855612852388
.84584352153017661, .1127016653792583, -.017021556487705331
.84584352153017661, .33000947820757187, .019980946065017283
.84584352153017661, .5, -.027234490380328668
.84584352153017661, .66999052179242813, .019980946065017283
.84584352153017661, .8872983346207417, -.017021556487705331
.84584352153017661, .93056815579702623, .010657855612852388
.86048308866761469, .1127016653792583, .015495367437129724
.86048308866761469, .21132486540518713, -.02789166138683357
.86048308866761469, .5, .024792587899407685
.86048308866761469, .78867513459481287, -.02789166138683357
.86048308866761469, .8872983346207417, .015495367437129724
.86220886568008503, .025446043828620812, .0045180761273583671
.86220886568008503, .033765242898423975, -.0059779688866785493
.86220886568008503, .12923440720030277, .0097596677774397806
.86220886568008503, .16939530676686765, -.012587934330008769
.86220886568008503, .29707742431130146, .013323069750394434
.86220886568008503, .38069040695840151, -.016326766264851356
.86220886568008503, .5, .014583711652692188
.86220886568008503, .61930959304159849, -.016326766264851356
.86220886568008503, .70292257568869854, .013323069750394434
.86220886568008503, .83060469323313235, -.012587934330008769
.86220886568008503, .87076559279969723, .0097596677774397806
.86220886568008503, .96623475710157603, -.0059779688866785493
.86220886568008503, .97455395617137919, .0045180761273583671
.86507600278702468, .010885670926971569, .0025926272775290147
.86507600278702468, .013046735741414128, -.0031050546985250988
.86507600278702468, .056468700115952286, .0058485983790000267
.86507600278702468, .067468316655507676, -.0069603308391740903
.86507600278702468, .13492399721297532, .0086760106718750066
.86507600278702468, .16029521585048778, -.010203411171123186
.86507600278702468, .24045193539659415, .010860428898218666
.86507600278702468, .28330230293537639, -.012540438484019669
.86507600278702468, .36522842202382755, .012239478507395351
.86507600278702468, .42556283050918442, -.013763317539091742
.86507600278702468, .5, .01271081799583143
.86507600278702468, .57443716949081558, -.013763317539091742
.86507600278702468, .63477157797617245, .012239478507395351
.86507600278702468, .71669769706462361, -.012540438484019669
.86507600278702468, .75954806460340585, .010860428898218666
.86507600278702468, .83970478414951222, -.010203411171123186
.86507600278702468, .86507600278702468, .0086760106718750066
.86507600278702468, .93253168334449232, -.0069603308391740903
.86507600278702468, .94353129988404771, .0058485983790000267
.86507600278702468, .98695326425858587, -.0031050546985250988
.86507600278702468, .98911432907302843, .0025926272775290147
.87076559279969723, .0060037409897573113, .00215046189802196
.87076559279969723, .0068580956515937874, -.0024557756002460233
.87076559279969723, .031363303799647024, .0049204407150536308
.87076559279969723, .035782558168213185, -.0056051622875131421
.87076559279969723, .075896708294786341, .0074932529281140931
.87076559279969723, .08639934246511749, -.0084973498468694075
.87076559279969723, .13779113431991497, .0097596677774397806
.87076559279969723, .15635354759415732, -.010992643353334297
.87076559279969723, .21451391369573058, .011626598326413473
.87076559279969723, .24237568182092295, -.012974022525715039
.87076559279969723, .30292432646121825, .013017558847347142
.87076559279969723, .34044381553605518, -.014348779157040935
.87076559279969723, .3994029530012827, .013875589071804743
.87076559279969723, .44597252564632817, -.015052615101600861
.87076559279969723, .5, .014165556616249776
.87076559279969723, .55402747435367183, -.015052615101600861
.87076559279969723, .6005970469987173, .013875589071804743
.87076559279969723, .65955618446394482, -.014348779157040935
.87076559279969723, .69707567353878175, .013017558847347142
.87076559279969723, .75762431817907705, -.012974022525715039
.87076559279969723, .78548608630426942, .011626598326413473
.87076559279969723, .84364645240584268, -.010992643353334297
.87076559279969723, .86220886568008503, .0097596677774397806
.87076559279969723, .91360065753488251, -.0084973498468694075
.87076559279969723, .92410329170521366, .0074932529281140931
.87076559279969723, .96421744183178681, -.0056051622875131421
.87076559279969723, .96863669620035298, .0049204407150536308
.87076559279969723, .99314190434840621, -.0024557756002460233
.87076559279969723, .99399625901024269, .00215046189802196
.8731659532300754, .21132486540518713, .025482529954310169
.8731659532300754, .5, -.050965059908620339
.8731659532300754, .78867513459481287, .025482529954310169
.87770220417750155, .033765242898423975, .0053379988090229476
.87770220417750155, .046910077030668074, -.0073819884868325907
.87770220417750155, .16939530676686765, .011240335929379536
.87770220417750155, .2307653449471585, -.014912749704435142
.87770220417750155, .38069040695840151, .014578908075481085
.87770220417750155, .5, -.017725009245231672
.87770220417750155, .61930959304159849, .014578908075481085
.87770220417750155, .7692346550528415, -.014912749704435142
.87770220417750155, .83060469323313235, .011240335929379536
.87770220417750155, .95308992296933193, -.0073819884868325907
.87770220417750155, .96623475710157603, .0053379988090229476
.88421998173783889, .5, .046722211728017014
.88495133709715235, .013046735741414128, .0026681593396680309
.88495133709715235, .015919880246186957, -.0032525670605757107
.88495133709715235, .067468316655507676, .0059809805426432987
.88495133709715235, .081984446336682115, -.0072294639046157246
.88495133709715235, .16029521585048778, .0087677446795500907
.88495133709715235, .19331428364970482, -.010429531170174946
.88495133709715235, .28330230293537639, .010775941589873741
.88495133709715235, .33787328829809549, -.012499999504490987
.88495133709715235, .42556283050918442, .011826755984101581
.88495133709715235, .5, -.013216040991958732
.88495133709715235, .57443716949081558, .011826755984101581
.88495133709715235, .66212671170190451, -.012499999504490987
.88495133709715235, .71669769706462361, .010775941589873741
.88495133709715235, .80668571635029518, -.010429531170174946
.88495133709715235, .83970478414951222, .0087677446795500907
.88495133709715235, .91801555366331788, -.0072294639046157246
.88495133709715235, .93253168334449232, .0059809805426432987
.88495133709715235, .98408011975381304, -.0032525670605757107
.88495133709715235, .98695326425858587, .0026681593396680309
.8872983346207417, .0037965780782078795, .0027030261430173379
.8872983346207417, .0042174157895344955, -.003002224100900194
.8872983346207417, .019895923932584991, .0062241981619027163
.8872983346207417, .022088025214301199, -.0069047984576347003
.8872983346207417, .048422048192590994, .0095895198246723889
.8872983346207417, .053698766751222093, -.010614684757623498
.8872983346207417, .088642671731428591, .012706947447562509
.8872983346207417, .098147520513738429, -.01401972834809545
.8872983346207417, .13951691133238531, .015495367437129724
.8872983346207417, .15415647846982339, -.017021556487705331
.8872983346207417, .19972734766915945, .017882494797130031
.8872983346207417, .22011458446302623, -.01953373814870148
.8872983346207417, .2677146293120195, .019806486413000913
.8872983346207417, .29412441926857869, -.021483982656425739
.8872983346207417, .34171795001818506, .021217505842480503
.8872983346207417, .37405688715424723, -.022816178298032321
.8872983346207417, .41982067717988736, .022079006026938106
.8872983346207417, .45761249347913235, -.02349199763376994
.8872983346207417, .5, .022368673590108832
.8872983346207417, .54238750652086765, -.02349199763376994
.8872983346207417, .58017932282011264, .022079006026938106
.8872983346207417, .62594311284575277, -.022816178298032321
.8872983346207417, .65828204998181494, .021217505842480503
.8872983346207417, .70587558073142131, -.021483982656425739
.8872983346207417, .7322853706879805, .019806486413000913
.8872983346207417, .77988541553697377, -.01953373814870148
.8872983346207417, .80027265233084055, .017882494797130031
.8872983346207417, .84584352153017661, -.017021556487705331
.8872983346207417, .86048308866761469, .015495367437129724
.8872983346207417, .90185247948626157, -.01401972834809545
.8872983346207417, .91135732826857141, .012706947447562509
.8872983346207417, .94630123324877791, -.010614684757623498
.8872983346207417, .95157795180740901, .0095895198246723889
.8872983346207417, .9779119747856988, -.0069047984576347003
.8872983346207417, .98010407606741501, .0062241981619027163
.8872983346207417, .9957825842104655, -.003002224100900194
.8872983346207417, .99620342192179212, .0027030261430173379
.89075700194840068, .046910077030668074, .0066270728509088151
.89075700194840068, .069431844202973769, -.0097298345847109217
.89075700194840068, .2307653449471585, .013387704258133425
.89075700194840068, .33000947820757187, -.018241127213640115
.89075700194840068, .5, .015912369378617598
.89075700194840068, .66999052179242813, -.018241127213640115
.89075700194840068, .7692346550528415, .013387704258133425
.89075700194840068, .93056815579702623, -.0097298345847109217
.89075700194840068, .95308992296933193, .0066270728509088151
.89833323870681348, .0068580956515937874, .0019524754795046694
.89833323870681348, .0079084726407059325, -.0022507187146313962
.89833323870681348, .035782558168213185, .0044564095855978581
.89833323870681348, .041200800388510928, -.0051215186073276572
.89833323870681348, .08639934246511749, .0067558563637179127
.89833323870681348, .099210954633345061, -.0077207087152119701
.89833323870681348, .15635354759415732, .0087397507329965395
.89833323870681348, .17882533027982994, -.0099040718713882155
.89833323870681348, .24237568182092295, .010315055190491392
.89833323870681348, .27575362448177665, -.011553586906816345
.89833323870681348, .34044381553605518, .011408061657646348
.89833323870681348, .38477084202243261, -.012580271926565755
.89833323870681348, .44597252564632817, .011967649603389271
.89833323870681348, .5, -.012928763742805317
.89833323870681348, .55402747435367183, .011967649603389271
.89833323870681348, .61522915797756739, -.012580271926565755
.89833323870681348, .65955618446394482, .011408061657646348
.89833323870681348, .72424637551822335, -.011553586906816345
.89833323870681348, .75762431817907705, .010315055190491392
.89833323870681348, .82117466972017006, -.0099040718713882155
.89833323870681348, .84364645240584268, .0087397507329965395
.89833323870681348, .90078904536665494, -.0077207087152119701
.89833323870681348, .91360065753488251, .0067558563637179127
.89833323870681348, .95879919961148907, -.0051215186073276572
.89833323870681348, .96421744183178681, .0044564095855978581
.89833323870681348, .99209152735929407, -.0022507187146313962
.89833323870681348, .99314190434840621, .0019524754795046694
.90078904536665494, .015919880246186957, .0028217149006843447
.90078904536665494, .019855071751231912, -.0035144905422637277
.90078904536665494, .081984446336682115, .0062718110476108254
.90078904536665494, .10166676129318652, -.0077207087152119701
.90078904536665494, .19331428364970482, .0090479805525748181
.90078904536665494, .2372337950418355, -.010891385773084607
.90078904536665494, .33787328829809549, .01084418374885898
.90078904536665494, .40828267875217505, -.012591792524386644
.90078904536665494, .5, .011465374610435956
.90078904536665494, .59171732124782495, -.012591792524386644
.90078904536665494, .66212671170190451, .01084418374885898
.90078904536665494, .7627662049581645, -.010891385773084607
.90078904536665494, .80668571635029518, .0090479805525748181
.90078904536665494, .89833323870681348, -.0077207087152119701
.90078904536665494, .91801555366331788, .0062718110476108254
.90078904536665494, .98014492824876809, -.0035144905422637277
.90078904536665494, .98408011975381304, .0028217149006843447
.90185247948626157, .069431844202973769, .0087782947801125603
.90185247948626157, .1127016653792583, -.01401972834809545
.90185247948626157, .33000947820757187, .016457216246459308
.90185247948626157, .5, -.022431565356952836
.90185247948626157, .66999052179242813, .016457216246459308
