.2061797982465442, .21132486540518713, -.028233074020134873
.2061797982465442, .5, .025096065795675516
.2061797982465442, .78867513459481287, -.028233074020134873
.2061797982465442, .8872983346207417, .015685041122297117
.20634102285669131, .0079084726407059325, .0020562577679032255
.20634102285669131, .0092196828766404337, -.0023961229246105037
.20634102285669131, .041200800388510928, .00467902201697519
.20634102285669131, .047941371814762546, -.005431646919492006
.20634102285669131, .099210954633345061, .0070536434278384453
.20634102285669131, .11504866290284765, -.0081306755210703557
.20634102285669131, .17882533027982994, .0090483651231153973
.20634102285669131, .20634102285669131, -.010319250820318163
.20634102285669131, .27575362448177665, .010555362902457071
.20634102285669131, .31608425050090994, -.011859519451884836
.20634102285669131, .38477084202243261, .011493342861181208
.20634102285669131, .43738329574426549, -.012654641043390813
.20634102285669131, .5, .011811725162592277
.20634102285669131, .56261670425573451, -.012654641043390813
.20634102285669131, .61522915797756739, .011493342861181208
.20634102285669131, .68391574949909006, -.011859519451884836
.20634102285669131, .72424637551822335, .010555362902457071
.20634102285669131, .79365897714330869, -.010319250820318163
.20634102285669131, .82117466972017006, .0090483651231153973
.20634102285669131, .88495133709715235, -.0081306755210703557
.20634102285669131, .90078904536665494, .0070536434278384453
.20634102285669131, .95205862818523745, -.005431646919492006
.20634102285669131, .95879919961148907, .00467902201697519
.20634102285669131, .99078031712335957, -.0023961229246105037
.20634102285669131, .99209152735929407, .0020562577679032255
.21132486540518713, .0026153325012239215, .0033529648717851228
.21132486540518713, .0028527072588003799, -.0036569988245676666
.21132486540518713, .013728764390942394, .0077470014642448482
.21132486540518713, .014969751082285709, -.0084437253962035604
.21132486540518713, .033514456586991925, .012009417932771193
.21132486540518713, .036521613906413064, -.013073333788170854
.21132486540518713, .061623820864779244, .016058105352131508
.21132486540518713, .067093711139849965, -.01744911710613016
.21132486540518713, .097555799190579995, .019820352944179789
.21132486540518713, .10609159701039594, -.021485401554267002
.21132486540518713, .14066931843402486, .023228941515008796
.21132486540518713, .15275636840665863, -.025103536110720318
.21132486540518713, .19019506211817694, .026223022866135429
.21132486540518713, .2061797982465442, -.028233074020134873
.21132486540518713, .24524926107699629, .028749160055602928
.21132486540518713, .26532208100662147, -.030813094202628146
.21132486540518713, .30484948098485454, .030762271076682429
.21132486540518713, .32903208955395791, -.032793376196765679
.21132486540518713, .36793215951482749, .032226430547020596
.21132486540518713, .39606978665588932, -.034135374586503869
.21132486540518713, .4333715878507669, .033115509851174223
.21132486540518713, .46513036334013891, -.034812968213908085
.21132486540518713, .5, .033413643046526609
.21132486540518713, .53486963665986109, -.034812968213908085
.21132486540518713, .5666284121492331, .033115509851174223
.21132486540518713, .60393021334411068, -.034135374586503869
.21132486540518713, .63206784048517251, .032226430547020596
.21132486540518713, .67096791044604209, -.032793376196765679
.21132486540518713, .69515051901514546, .030762271076682429
.21132486540518713, .73467791899337853, -.030813094202628146
.21132486540518713, .75475073892300371, .028749160055602928
.21132486540518713, .7938202017534558, -.028233074020134873
.21132486540518713, .80980493788182306, .026223022866135429
.21132486540518713, .84724363159334137, -.025103536110720318
.21132486540518713, .85933068156597514, .023228941515008796
.21132486540518713, .89390840298960406, -.021485401554267002
.21132486540518713, .90244420080942001, .019820352944179789
.21132486540518713, .93290628886015003, -.01744911710613016
.21132486540518713, .93837617913522076, .016058105352131508
.21132486540518713, .96347838609358694, -.013073333788170854
.21132486540518713, .96648554341300807, .012009417932771193
.21132486540518713, .98503024891771429, -.0084437253962035604
.21132486540518713, .98627123560905761, .0077470014642448482
.21132486540518713, .99714729274119962, -.0036569988245676666
.21132486540518713, .99738466749877608, .0033529648717851228
.21451391369573058, .013046735741414128, .0027713478672390713
.21451391369573058, .015919880246186957, -.0033783570015350215
.21451391369573058, .067468316655507676, .0062122892828863734
.21451391369573058, .081984446336682115, -.0075090565527587312
.21451391369573058, .16029521585048778, .0091068288752166673
.21451391369573058, .19331428364970482, -.010832883379582546
.21451391369573058, .28330230293537639, .011192690893155213
.21451391369573058, .33787328829809549, -.012983425109675288
.21451391369573058, .42556283050918442, .012284144535751303
.21451391369573058, .5, -.013727158821394065
.21451391369573058, .57443716949081558, .012284144535751303
.21451391369573058, .66212671170190451, -.012983425109675288
.21451391369573058, .71669769706462361, .011192690893155213
.21451391369573058, .80668571635029518, -.010832883379582546
.21451391369573058, .83970478414951222, .0091068288752166673
.21451391369573058, .91801555366331788, -.0075090565527587312
.21451391369573058, .93253168334449232, .0062122892828863734
.21451391369573058, .98408011975381304, -.0033783570015350215
.21451391369573058, .98695326425858587, .0027713478672390713
.22011458446302623, .025446043828620812, .004552785762004896
.22011458446302623, .033765242898423975, -.0060238939906688289
.22011458446302623, .12923440720030277, .0098346453770369151
.22011458446302623, .16939530676686765, -.012684639783664896
.22011458446302623, .29707742431130146, .013425422802970552
.22011458446302623, .38069040695840151, -.016452194893329025
.22011458446302623, .5, .014695749451300782
.22011458446302623, .61930959304159849, -.016452194893329025
.22011458446302623, .70292257568869854, .013425422802970552
.22011458446302623, .83060469323313235, -.012684639783664896
.22011458446302623, .87076559279969723, .0098346453770369151
.22011458446302623, .96623475710157603, -.0060238939906688289
.22011458446302623, .97455395617137919, .004552785762004896
.22419058205639009, .069431844202973769, .010594912091061507
.22419058205639009, .1127016653792583, -.016921030007462291
.22419058205639009, .33000947820757187, .019862941922370689
.22419058205639009, .5, -.027073648011939806
.22419058205639009, .66999052179242813, .019862941922370689
.22419058205639009, .8872983346207417, -.016921030007462291
.22419058205639009, .93056815579702623, .010594912091061507
.22728926430558016, .5, .053722135057982949
.2307653449471585, .0034357004074525577, .002107642204794518
.2307653449471585, .0037965780782078795, -.0023287424564833771
.2307653449471585, .01801403636104304, .0048582520914332
.2307653449471585, .019895923932584991, -.0053623434440810292
.2307653449471585, .043882785874337027, .0074991597929067334
.2307653449471585, .048422048192590994, -.0082616744239385562
.2307653449471585, .080441514088890553, .0099646590260944728
.2307653449471585, .088642671731428591, -.010947436853278002
.2307653449471585, .1268340467699246, .012196669432991853
.2307653449471585, .13951691133238531, -.013349748807598769
.2307653449471585, .18197315963674243, .014142822923259232
.2307653449471585, .19972734766915945, -.015406334477932087
.2307653449471585, .24456649902458638, .015757489485200425
.2307653449471585, .2677146293120195, -.017063914066413274
.2307653449471585, .31314695564229023, .017002817971547634
.2307653449471585, .34171795001818506, -.018279551902858356
.2307653449471585, .38610707442917747, .01784961704745075
.2307653449471585, .41982067717988736, -.019021761541117784
.2307653449471585, .46173673943325133, .018278037649163782
.2307653449471585, .5, -.019271319302282739
.2307653449471585, .53826326056674867, .018278037649163782
.2307653449471585, .58017932282011264, -.019021761541117784
.2307653449471585, .61389292557082253, .01784961704745075
.2307653449471585, .65828204998181494, -.018279551902858356
.2307653449471585, .68685304435770977, .017002817971547634
.2307653449471585, .7322853706879805, -.017063914066413274
.2307653449471585, .75543350097541362, .015757489485200425
.2307653449471585, .80027265233084055, -.015406334477932087
.2307653449471585, .81802684036325757, .014142822923259232
.2307653449471585, .86048308866761469, -.013349748807598769
.2307653449471585, .8731659532300754, .012196669432991853
.2307653449471585, .91135732826857141, -.010947436853278002
.2307653449471585, .91955848591110945, .0099646590260944728
.2307653449471585, .95157795180740901, -.0082616744239385562
.2307653449471585, .95611721412566297, .0074991597929067334
.2307653449471585, .98010407606741501, -.0053623434440810292
.2307653449471585, .98198596363895696, .0048582520914332
.2307653449471585, .99620342192179212, -.0023287424564833771
.2307653449471585, .99656429959254744, .002107642204794518
.2372337950418355, .0047122623427913179, .0018938707741337683
.2372337950418355, .0052995325041750307, -.0021294767423490567
.2372337950418355, .024662239115616158, .0043495057354699558
.2372337950418355, .0277124884633837, -.0048823360472180352
.2372337950418355, .059880423136507099, .0066691012167392648
.2372337950418355, .067184398806084067, -.0074629643816617203
.2372337950418355, .10924299805159932, .0087746766077392829
.2372337950418355, .12229779582249845, -.0097742341379463884
.2372337950418355, .17116442039165469, .010598294222094955
.2372337950418355, .19106187779867811, -.011732313972108674
.2372337950418355, .24365473145676153, .012081294754778255
.2372337950418355, .27099161117138637, -.013266381081946136
.2372337950418355, .32438411827306179, .013176000845306584
.2372337950418355, .35919822461037054, -.014320976214897816
.2372337950418355, .41075790925207611, .013847223521951349
.2372337950418355, .45249374508118123, -.014857978891344574
.2372337950418355, .5, .014073387582517947
.2372337950418355, .54750625491881877, -.014857978891344574
.2372337950418355, .58924209074792389, .013847223521951349
.2372337950418355, .64080177538962946, -.014320976214897816
.2372337950418355, .67561588172693821, .013176000845306584
.2372337950418355, .72900838882861363, -.013266381081946136
.2372337950418355, .75634526854323847, .012081294754778255
.2372337950418355, .80893812220132189, -.011732313972108674
.2372337950418355, .82883557960834531, .010598294222094955
.2372337950418355, .87770220417750155, -.0097742341379463884
.2372337950418355, .89075700194840068, .0087746766077392829
.2372337950418355, .93281560119391593, -.0074629643816617203
.2372337950418355, .9401195768634929, .0066691012167392648
.2372337950418355, .9722875115366163, -.0048823360472180352
.2372337950418355, .97533776088438384, .0043495057354699558
.2372337950418355, .99470046749582497, -.0021294767423490567
.2372337950418355, .99528773765720868, .0018938707741337683
.24045193539659415, .0068580956515937874, .0020474097912999228
.24045193539659415, .0079084726407059325, -.0023601543692458329
.24045193539659415, .035782558168213185, .0046730915268193849
.24045193539659415, .041200800388510928, -.0053705398367551241
.24045193539659415, .08639934246511749, .0070843432416375545
.24045193539659415, .099210954633345061, -.0080961091625641746
.24045193539659415, .15635354759415732, .0091646995888508415
.24045193539659415, .17882533027982994, -.01038563297520269
.24045193539659415, .24237568182092295, .01081659934606142
.24045193539659415, .27575362448177665, -.012115351616938861
.24045193539659415, .34044381553605518, .01196275056091556
.24045193539659415, .38477084202243261, -.013191956667338352
.24045193539659415, .44597252564632817, .01254954709241317
.24045193539659415, .5, -.013557393039905646
.24045193539659415, .55402747435367183, .01254954709241317
.24045193539659415, .61522915797756739, -.013191956667338352
.24045193539659415, .65955618446394482, .01196275056091556
.24045193539659415, .72424637551822335, -.012115351616938861
.24045193539659415, .75762431817907705, .01081659934606142
.24045193539659415, .82117466972017006, -.01038563297520269
.24045193539659415, .84364645240584268, .0091646995888508415
.24045193539659415, .90078904536665494, -.0080961091625641746
.24045193539659415, .91360065753488251, .0070843432416375545
.24045193539659415, .95879919961148907, -.0053705398367551241
.24045193539659415, .96421744183178681, .0046730915268193849
.24045193539659415, .99209152735929407, -.0023601543692458329
.24045193539659415, .99314190434840621, .0020474097912999228
.24237568182092295, .010885670926971569, .0025821641831568032
.24237568182092295, .013046735741414128, -.0030925235951832757
.24237568182092295, .056468700115952286, .0058249951263014878
.24237568182092295, .067468316655507676, -.0069322409555786727
.24237568182092295, .13492399721297532, .0086409968003397734
.24237568182092295, .16029521585048778, -.010162233152621549
.24237568182092295, .24045193539659415, .01081659934606142
.24237568182092295, .28330230293537639, -.012489828898729698
.24237568182092295, .36522842202382755, .012190083509587729
.24237568182092295, .42556283050918442, -.013707772767371418
.24237568182092295, .5, .012659520808074793
.24237568182092295, .57443716949081558, -.013707772767371418
.24237568182092295, .63477157797617245, .012190083509587729
.24237568182092295, .71669769706462361, -.012489828898729698
.24237568182092295, .75954806460340585, .01081659934606142
.24237568182092295, .83970478414951222, -.010162233152621549
.24237568182092295, .86507600278702468, .0086409968003397734
.24237568182092295, .93253168334449232, -.0069322409555786727
.24237568182092295, .94353129988404771, .0058249951263014878
.24237568182092295, .98695326425858587, -.0030925235951832757
.24237568182092295, .98911432907302843, .0025821641831568032
.24365473145676153, .019855071751231912, .0038984567288854141
.24365473145676153, .025446043828620812, -.0049866525403719124
.24365473145676153, .10166676129318652, .008564213925354688
.24365473145676153, .12923440720030277, -.010771857477313308
.24365473145676153, .2372337950418355, .012081294754778255
.24365473145676153, .29707742431130146, -.014704825183014641
.24365473145676153, .40828267875217505, .013967474860184318
.24365473145676153, .5, -.016096210137005643
.24365473145676153, .59171732124782495, .013967474860184318
.24365473145676153, .70292257568869854, -.014704825183014641
.24365473145676153, .7627662049581645, .012081294754778255
.24365473145676153, .87076559279969723, -.010771857477313308
.24365473145676153, .89833323870681348, .008564213925354688
.24365473145676153, .97455395617137919, -.0049866525403719124
.24365473145676153, .98014492824876809, .0038984567288854141
.24456649902458638, .046910077030668074, .0078001447262633526
.24456649902458638, .069431844202973769, -.011452132733524998
.24456649902458638, .2307653449471585, .015757489485200425
.24456649902458638, .33000947820757187, -.021470026878769196
.24456649902458638, .5, .018729050801660839
.24456649902458638, .66999052179242813, -.021470026878769196
.24456649902458638, .7692346550528415, .015757489485200425
.24456649902458638, .93056815579702623, -.011452132733524998
.24456649902458638, .95308992296933193, .0078001447262633526
.24524926107699629, .21132486540518713, .028749160055602928
.24524926107699629, .5, -.057498320111205856
.24524926107699629, .78867513459481287, .028749160055602928
.26532208100662147, .1127016653792583, .017118385668126707
.26532208100662147, .21132486540518713, -.030813094202628146
.26532208100662147, .5, .027389417069002872
.26532208100662147, .78867513459481287, -.030813094202628146
.26532208100662147, .8872983346207417, .017118385668126707
.2677146293120195, .033765242898423975, .0061080052149399457
.2677146293120195, .046910077030668074, -.0084468404335318881
.2677146293120195, .16939530676686765, .012861754550839561
.2677146293120195, .2307653449471585, -.017063914066413274
.2677146293120195, .38069040695840151, .016681915777622226
.2677146293120195, .5, -.020281842086913134
.2677146293120195, .61930959304159849, .016681915777622226
.2677146293120195, .7692346550528415, -.017063914066413274
.2677146293120195, .83060469323313235, .012861754550839561
.2677146293120195, .95308992296933193, -.0084468404335318881
.2677146293120195, .96623475710157603, .0061080052149399457
.27099161117138637, .015919880246186957, .0034370231628001956
.27099161117138637, .019855071751231912, -.0042808667155824504
.27099161117138637, .081984446336682115, .0076394535245628645
.27099161117138637, .10166676129318652, -.0094043004418983295
.27099161117138637, .19331428364970482, .01102099958015716
.27099161117138637, .2372337950418355, -.013266381081946136
.27099161117138637, .33787328829809549, .013208886098822509
.27099161117138637, .40828267875217505, -.015337581609323839
.27099161117138637, .5, .013965534964816045
.27099161117138637, .59171732124782495, -.015337581609323839
.27099161117138637, .66212671170190451, .013208886098822509
.27099161117138637, .7627662049581645, -.013266381081946136
.27099161117138637, .80668571635029518, .01102099958015716
.27099161117138637, .89833323870681348, -.0094043004418983295
.27099161117138637, .91801555366331788, .0076394535245628645
.27099161117138637, .98014492824876809, -.0042808667155824504
.27099161117138637, .98408011975381304, .0034370231628001956
.27575362448177665, .0092196828766404337, .0024509479872668561
.27575362448177665, .010885670926971569, -.0028922053975311162
.27575362448177665, .047941371814762546, .0055559270136515074
.27575362448177665, .056468700115952286, -.0065244040076047199
.27575362448177665, .11504866290284765, .0083167113835474933
.27575362448177665, .13492399721297532, -.0096785238324538329
.27575362448177665, .20634102285669131, .010555362902457071
.27575362448177665, .24045193539659415, -.012115351616938861
.27575362448177665, .31608425050090994, .012130874018190947
.27575362448177665, .36522842202382755, -.013653750428713052
.27575362448177665, .43738329574426549, .012944188579108468
.27575362448177665, .5, -.01417955320196152
.27575362448177665, .56261670425573451, .012944188579108468
.27575362448177665, .63477157797617245, -.013653750428713052
.27575362448177665, .68391574949909006, .012130874018190947
.27575362448177665, .75954806460340585, -.012115351616938861
.27575362448177665, .79365897714330869, .010555362902457071
.27575362448177665, .86507600278702468, -.0096785238324538329
.27575362448177665, .88495133709715235, .0083167113835474933
.27575362448177665, .94353129988404771, -.0065244040076047199
.27575362448177665, .95205862818523745, .0055559270136515074
.27575362448177665, .98911432907302843, -.0028922053975311162
.27575362448177665, .99078031712335957, .0024509479872668561
.28310324618697746, .5, .057752834026862924
.28330230293537639, .0060037409897573113, .0020702061451100735
.28330230293537639, .0068580956515937874, -.0023641254668669235
.28330230293537639, .031363303799647024, .0047368086894836068
.28330230293537639, .035782558168213185, -.0053959762889183947
.28330230293537639, .075896708294786341, .0072136029347530609
.28330230293537639, .08639934246511749, -.0081802267160929493
.28330230293537639, .13779113431991497, .0093954346392619917
.28330230293537639, .15635354759415732, -.010582395271457015
.28330230293537639, .21451391369573058, .011192690893155213
.28330230293537639, .24237568182092295, -.012489828898729698
.28330230293537639, .30292432646121825, .012531740434414738
.28330230293537639, .34044381553605518, -.013813279283421249
.28330230293537639, .3994029530012827, .013357748765460351
.28330230293537639, .44597252564632817, -.014490847902013179
.28330230293537639, .5, .013636894651720763
.28330230293537639, .55402747435367183, -.014490847902013179
.28330230293537639, .6005970469987173, .013357748765460351
.28330230293537639, .65955618446394482, -.013813279283421249
.28330230293537639, .69707567353878175, .012531740434414738
.28330230293537639, .75762431817907705, -.012489828898729698
.28330230293537639, .78548608630426942, .011192690893155213
.28330230293537639, .84364645240584268, -.010582395271457015
.28330230293537639, .86220886568008503, .0093954346392619917
.28330230293537639, .91360065753488251, -.0081802267160929493
.28330230293537639, .92410329170521366, .0072136029347530609
.28330230293537639, .96421744183178681, -.0053959762889183947
.28330230293537639, .96863669620035298, .0047368086894836068
.28330230293537639, .99314190434840621, -.0023641254668669235
.28330230293537639, .99399625901024269, .0020702061451100735
.28782893989628056, .069431844202973769, .011502597791198636
.28782893989628056, .1127016653792583, -.018370685921296873
.28782893989628056, .33000947820757187, .021564636867135806
.28782893989628056, .5, -.029393097474075147
.28782893989628056, .66999052179242813, .021564636867135806
.28782893989628056, .8872983346207417, -.018370685921296873
.28782893989628056, .93056815579702623, .011502597791198636
.29412441926857869, .025446043828620812, .0050073349813915353
.29412441926857869, .033765242898423975, -.0066253183612108293
.29412441926857869, .12923440720030277, .01081653440339601
.29412441926857869, .16939530676686765, -.013951071681248083
.29412441926857869, .29707742431130146, .014765814328957599
.29412441926857869, .38069040695840151, -.018094778739107514
.29412441926857869, .5, .016162970135642572
.29412441926857869, .61930959304159849, -.018094778739107514
.29412441926857869, .70292257568869854, .014765814328957599
.29412441926857869, .83060469323313235, -.013951071681248083
.29412441926857869, .87076559279969723, .01081653440339601
.29412441926857869, .96623475710157603, -.0066253183612108293
.29412441926857869, .97455395617137919, .0050073349813915353
.29707742431130146, .0042174157895344955, .0020634108841339521
.29707742431130146, .0047122623427913179, -.0023051369259775027
.29707742431130146, .022088025214301199, .0047456271788514333
.29707742431130146, .024662239115616158, -.0052940287254649608
.29707742431130146, .053698766751222093, .0072954101107788076
.29707742431130146, .059880423136507099, -.0081173392016774051
.29707742431130146, .098147520513738429, .0096356764497984981
.29707742431130146, .10924299805159932, -.010680153756141212
.29707742431130146, .15415647846982339, .011698815192077387
.29707742431130146, .17116442039165469, -.012899781599353996
.29707742431130146, .22011458446302623, .013425422802970552
.29707742431130146, .24365473145676153, -.014704825183014641
.29707742431130146, .29412441926857869, .014765814328957599
.29707742431130146, .32438411827306179, -.016037253702866273
.29707742431130146, .37405688715424723, .015681424521368819
.29707742431130146, .41075790925207611, -.016854236676899972
.29707742431130146, .45761249347913235, .016145911157343481
.29707742431130146, .5, -.017129513709769086
.29707742431130146, .54238750652086765, .016145911157343481
.29707742431130146, .58924209074792389, -.016854236676899972
.29707742431130146, .62594311284575277, .015681424521368819
.29707742431130146, .67561588172693821, -.016037253702866273
.29707742431130146, .70587558073142131, .014765814328957599
.29707742431130146, .75634526854323847, -.014704825183014641
.29707742431130146, .77988541553697377, .013425422802970552
.29707742431130146, .82883557960834531, -.012899781599353996
.29707742431130146, .84584352153017661, .011698815192077387
.29707742431130146, .89075700194840068, -.010680153756141212
.29707742431130146, .90185247948626157, .0096356764497984981
.29707742431130146, .9401195768634929, -.0081173392016774051
.29707742431130146, .94630123324877791, .0072954101107788076
.29707742431130146, .97533776088438384, -.0052940287254649608
.29707742431130146, .9779119747856988, .0047456271788514333
.29707742431130146, .99528773765720868, -.0023051369259775027
.29707742431130146, .9957825842104655, .0020634108841339521
.30292432646121825, .013046735741414128, .0031029010322216272
.30292432646121825, .015919880246186957, -.0037825303532607315
.30292432646121825, .067468316655507676, .0069555031528868031
.30292432646121825, .081984446336682115, -.0084074105614817315
.30292432646121825, .16029521585048778, .010196334083936878
.30292432646121825, .19331428364970482, -.012128886964280735
.30292432646121825, .28330230293537639, .012531740434414738
.30292432646121825, .33787328829809549, -.014536711053426313
.30292432646121825, .42556283050918442, .01375377130043063
.30292432646121825, .5, -.015369422142882314
.30292432646121825, .57443716949081558, .01375377130043063
.30292432646121825, .66212671170190451, -.014536711053426313
.30292432646121825, .71669769706462361, .012531740434414738
.30292432646121825, .80668571635029518, -.012128886964280735
.30292432646121825, .83970478414951222, .010196334083936878
.30292432646121825, .91801555366331788, -.0084074105614817315
.30292432646121825, .93253168334449232, .0069555031528868031
.30292432646121825, .98408011975381304, -.0037825303532607315
.30292432646121825, .98695326425858587, .0031029010322216272
.30484948098485454, .21132486540518713, .030762271076682429
.30484948098485454, .5, -.061524542153364857
.30484948098485454, .78867513459481287, .030762271076682429
.31314695564229023, .046910077030668074, .0084165971398518207
.31314695564229023, .069431844202973769, -.012357205025395014
.31314695564229023, .2307653449471585, .017002817971547634
.31314695564229023, .33000947820757187, -.023166822304200602
.31314695564229023, .5, .020209224436392323
.31314695564229023, .66999052179242813, -.023166822304200602
.31314695564229023, .7692346550528415, .017002817971547634
.31314695564229023, .93056815579702623, -.012357205025395014
.31314695564229023, .95308992296933193, .0084165971398518207
.31608425050090994, .0079084726407059325, .0023631782404709219
.31608425050090994, .0092196828766404337, -.0027537722387340224
.31608425050090994, .041200800388510928, .0053774206667072545
.31608425050090994, .047941371814762546, -.0062423836205872637
.31608425050090994, .099210954633345061, .0081064820398008778
.31608425050090994, .11504866290284765, -.0093442737441015861
.31608425050090994, .17882533027982994, .010398939230554998
.31608425050090994, .20634102285669131, -.011859519451884836
.31608425050090994, .27575362448177665, .012130874018190947
.31608425050090994, .31608425050090994, -.013629691154778842
.31608425050090994, .38477084202243261, .013208858433887518
.31608425050090994, .43738329574426549, -.014543493924502396
.31608425050090994, .5, .013574763009952855
.31608425050090994, .56261670425573451, -.014543493924502396
.31608425050090994, .61522915797756739, .013208858433887518
.31608425050090994, .68391574949909006, -.013629691154778842
.31608425050090994, .72424637551822335, .012130874018190947
.31608425050090994, .79365897714330869, -.011859519451884836
.31608425050090994, .82117466972017006, .010398939230554998
.31608425050090994, .88495133709715235, -.0093442737441015861
.31608425050090994, .90078904536665494, .0081064820398008778
.31608425050090994, .95205862818523745, -.0062423836205872637
.31608425050090994, .95879919961148907, .0053774206667072545
.31608425050090994, .99078031712335957, -.0027537722387340224
.31608425050090994, .99209152735929407, .0023631782404709219
.32438411827306179, .019855071751231912, .0042517023380188321
.32438411827306179, .025446043828620812, -.005438501370989563
.32438411827306179, .10166676129318652, .0093402315074905193
.32438411827306179, .12923440720030277, -.011747913291368683
.32438411827306179, .2372337950418355, .013176000845306584
.32438411827306179, .29707742431130146, -.016037253702866273
.32438411827306179, .40828267875217505, .01523309084829666
.32438411827306179, .5, -.017554714347776168
.32438411827306179, .59171732124782495, .01523309084829666
.32438411827306179, .70292257568869854, -.016037253702866273
.32438411827306179, .7627662049581645, .013176000845306584
.32438411827306179, .87076559279969723, -.011747913291368683
.32438411827306179, .89833323870681348, .0093402315074905193
.32438411827306179, .97455395617137919, -.005438501370989563
.32438411827306179, .98014492824876809, .0042517023380188321
.32903208955395791, .1127016653792583, .018218542331536445
.32903208955395791, .21132486540518713, -.032793376196765679
.32903208955395791, .5, .029149667730458465
.32903208955395791, .78867513459481287, -.032793376196765679
.32903208955395791, .8872983346207417, .018218542331536445
.33000947820757187, .0031239146898052184, .0026113894506585326
.33000947820757187, .0034357004074525577, -.0028717223533778614
.33000947820757187, .016386580716846844, .0060248087382176983
.33000947820757187, .01801403636104304, -.0066195064312036091
.33000947820757187, .039950332924799659, .0093149846794951755
.33000947820757187, .043882785874337027, -.010217818166600218
.33000947820757187, .073318317708341407, .012407080096809301
.33000947820757187, .080441514088890553, -.013577130882997203
.33000947820757187, .11578001826216111, .015234832001444263
.33000947820757187, .1268340467699246, -.016618308443343187
.33000947820757187, .16643059790129389, .017737907878496863
.33000947820757187, .18197315963674243, -.019269997837487798
.33000947820757187, .22419058205639009, .019862941922370689
.33000947820757187, .24456649902458638, -.021470026878769196
.33000947820757187, .28782893989628056, .021564636867135806
.33000947820757187, .31314695564229023, -.023166822304200602
.33000947820757187, .35598934159879947, .022806721684835819
.33000947820757187, .38610707442917747, -.024320610091121381
.33000947820757187, .42721907291955241, .023562722455364254
.33000947820757187, .46173673943325133, -.024904345326536657
.33000947820757187, .5, .02381652588161863
.33000947820757187, .53826326056674867, -.024904345326536657
.33000947820757187, .57278092708044759, .023562722455364254
.33000947820757187, .61389292557082253, -.024320610091121381
.33000947820757187, .64401065840120053, .022806721684835819
.33000947820757187, .68685304435770977, -.023166822304200602
.33000947820757187, .71217106010371944, .021564636867135806
.33000947820757187, .75543350097541362, -.021470026878769196
.33000947820757187, .77580941794360991, .019862941922370689
.33000947820757187, .81802684036325757, -.019269997837487798
.33000947820757187, .83356940209870611, .017737907878496863
.33000947820757187, .8731659532300754, -.016618308443343187
.33000947820757187, .88421998173783889, .015234832001444263
.33000947820757187, .91955848591110945, -.013577130882997203
.33000947820757187, .92668168229165859, .012407080096809301
.33000947820757187, .95611721412566297, -.010217818166600218
.33000947820757187, .96004966707520034, .0093149846794951755
.33000947820757187, .98198596363895696, -.0066195064312036091
.33000947820757187, .98361341928315316, .0060248087382176983
.33000947820757187, .99656429959254744, -.0028717223533778614
.33000947820757187, .99687608531019478, .0026113894506585326
.33787328829809549, .0052995325041750307, .0021202478329270186
.33787328829809549, .0060037409897573113, -.0024014213117475999
.33787328829809549, .0277124884633837, .0048611765594191595
.33787328829809549, .031363303799647024, -.0054946573139422004
.33787328829809549, .067184398806084067, .0074306207448759654
.33787328829809549, .075896708294786341, -.0083677173227016798
.33787328829809549, .12229779582249845, .0097318737215422203
.33787328829809549, .13779113431991497, -.010898623322681577
.33787328829809549, .19106187779867811, .011681467460941775
.33787328829809549, .21451391369573058, -.012983425109675288
.33787328829809549, .27099161117138637, .013208886098822509
.33787328829809549, .30292432646121825, -.014536711053426313
.33787328829809549, .35919822461037054, .014258910736701208
.33787328829809549, .3994029530012827, -.015494873608657511
.33787328829809549, .45249374508118123, .014793586104771331
.33787328829809549, .5, -.015818680434338043
.33787328829809549, .54750625491881877, .014793586104771331
.33787328829809549, .6005970469987173, -.015494873608657511
.33787328829809549, .64080177538962946, .014258910736701208
.33787328829809549, .69707567353878175, -.014536711053426313
.33787328829809549, .72900838882861363, .013208886098822509
.33787328829809549, .78548608630426942, -.012983425109675288
.33787328829809549, .80893812220132189, .011681467460941775
.33787328829809549, .86220886568008503, -.010898623322681577
.33787328829809549, .87770220417750155, .0097318737215422203
.33787328829809549, .92410329170521366, -.0083677173227016798
.33787328829809549, .93281560119391593, .0074306207448759654
.33787328829809549, .96863669620035298, -.0054946573139422004
.33787328829809549, .9722875115366163, .0048611765594191595
.33787328829809549, .99399625901024269, -.0024014213117475999
.33787328829809549, .99470046749582497, .0021202478329270186
.34044381553605518, .010885670926971569, .0028557761124509817
.34044381553605518, .013046735741414128, -.0034202143565938881
.34044381553605518, .056468700115952286, .0064422247219378384
.34044381553605518, .067468316655507676, -.007666796811693583
.34044381553605518, .13492399721297532, .0095566162721718723
.34044381553605518, .16029521585048778, -.011239046252641686
.34044381553605518, .24045193539659415, .01196275056091556
.34044381553605518, .28330230293537639, -.013813279283421249
.34044381553605518, .36522842202382755, .013481772198119472
.34044381553605518, .42556283050918442, -.015160279225973683
.34044381553605518, .5, .014000952129456731
.34044381553605518, .57443716949081558, -.015160279225973683
.34044381553605518, .63477157797617245, .013481772198119472
.34044381553605518, .71669769706462361, -.013813279283421249
.34044381553605518, .75954806460340585, .01196275056091556
.34044381553605518, .83970478414951222, -.011239046252641686
.34044381553605518, .86507600278702468, .0095566162721718723
.34044381553605518, .93253168334449232, -.007666796811693583
.34044381553605518, .94353129988404771, .0064422247219378384
.34044381553605518, .98695326425858587, -.0034202143565938881
.34044381553605518, .98911432907302843, .0028557761124509817
.34171795001818506, .033765242898423975, .0065431411524268582
.34171795001818506, .046910077030668074, -.0090485956222565254
.34171795001818506, .16939530676686765, .013778029411004552
.34171795001818506, .2307653449471585, -.018279551902858356
.34171795001818506, .38069040695840151, .017870339953033595
.34171795001818506, .5, -.021726725982700253
.34171795001818506, .61930959304159849, .017870339953033595
.34171795001818506, .7692346550528415, -.018279551902858356
.34171795001818506, .83060469323313235, .013778029411004552
.34171795001818506, .95308992296933193, -.0090485956222565254
.34171795001818506, .96623475710157603, .0065431411524268582
.3424786601519183, .5, .060835236463901834
.35598934159879947, .069431844202973769, .012165127012932533
.35598934159879947, .1127016653792583, -.019428804832093485
.35598934159879947, .33000947820757187, .022806721684835819
.35598934159879947, .5, -.031086087731349733
.35598934159879947, .66999052179242813, .022806721684835819
.35598934159879947, .8872983346207417, -.019428804832093485
.35598934159879947, .93056815579702623, .012165127012932533
.35919822461037054, .015919880246186957, .0037102452176274916
.35919822461037054, .019855071751231912, -.0046211691066551661
.35919822461037054, .081984446336682115, .0082467427661163488
.35919822461037054, .10166676129318652, -.010151884083102341
.35919822461037054, .19331428364970482, .01189710079010305
.35919822461037054, .2372337950418355, -.014320976214897816
.35919822461037054, .33787328829809549, .014258910736701208
.35919822461037054, .40828267875217505, -.016556824356575701
.35919822461037054, .5, .015075708501365848
.35919822461037054, .59171732124782495, -.016556824356575701
.35919822461037054, .66212671170190451, .014258910736701208
.35919822461037054, .7627662049581645, -.014320976214897816
.35919822461037054, .80668571635029518, .01189710079010305
.35919822461037054, .89833323870681348, -.010151884083102341
.35919822461037054, .91801555366331788, .0082467427661163488
.35919822461037054, .98014492824876809, -.0046211691066551661
.35919822461037054, .98408011975381304, .0037102452176274916
.36522842202382755, .0068580956515937874, .0023073884439827642
.36522842202382755, .0079084726407059325, -.0026598451080746617
.36522842202382755, .035782558168213185, .0052664773962084084
.36522842202382755, .041200800388510928, -.0060524872011137962
.36522842202382755, .08639934246511749, .0079839081547927061
.36522842202382755, .099210954633345061, -.0091241473994626461
.36522842202382755, .15635354759415732, .010328426685144386
.36522842202382755, .17882533027982994, -.011704393332618678
.36522842202382755, .24237568182092295, .012190083509587729
.36522842202382755, .27575362448177665, -.013653750428713052
.36522842202382755, .34044381553605518, .013481772198119472
.36522842202382755, .38477084202243261, -.014867062029830314
.36522842202382755, .44597252564632817, .014143079739726519
.36522842202382755, .5, -.015278901255497683
.36522842202382755, .55402747435367183, .014143079739726519
.36522842202382755, .61522915797756739, -.014867062029830314
.36522842202382755, .65955618446394482, .013481772198119472
.36522842202382755, .72424637551822335, -.013653750428713052
.36522842202382755, .75762431817907705, .012190083509587729
.36522842202382755, .82117466972017006, -.011704393332618678
.36522842202382755, .84364645240584268, .010328426685144386
.36522842202382755, .90078904536665494, -.0091241473994626461
.36522842202382755, .91360065753488251, .0079839081547927061
.36522842202382755, .95879919961148907, -.0060524872011137962
.36522842202382755, .96421744183178681, .0052664773962084084
.36522842202382755, .99209152735929407, -.0026598451080746617
.36522842202382755, .99314190434840621, .0023073884439827642
.36793215951482749, .21132486540518713, .032226430547020596
.36793215951482749, .5, -.064452861094041192
.36793215951482749, .78867513459481287, .032226430547020596
.37405688715424723, .025446043828620812, .0053178337350422598
.37405688715424723, .033765242898423975, -.007036146296897197
.37405688715424723, .12923440720030277, .011487254549652595
.37405688715424723, .16939530676686765, -.014816160672741049
.37405688715424723, .29707742431130146, .015681424521368819
.37405688715424723, .38069040695840151, -.019216813966820036
.37405688715424723, .5, .017165216260789217
.37405688715424723, .61930959304159849, -.019216813966820036
.37405688715424723, .70292257568869854, .015681424521368819
.37405688715424723, .83060469323313235, -.014816160672741049
.37405688715424723, .87076559279969723, .011487254549652595
.37405688715424723, .96623475710157603, -.007036146296897197
.37405688715424723, .97455395617137919, .0053178337350422598
.38069040695840151, .0037965780782078795, .0022766104760977828
.38069040695840151, .0042174157895344955, -.0025286084847381328
.38069040695840151, .019895923932584991, .005242300292692877
.38069040695840151, .022088025214301199, -.0058155325447380047
.38069040695840151, .048422048192590994, .0080767259132855911
.38069040695840151, .053698766751222093, -.0089401660365391843
.38069040695840151, .088642671731428591, .010702363997875414
.38069040695840151, .098147520513738429, -.011808047255395875
.38069040695840151, .13951691133238531, .013050897021282606
.38069040695840151, .15415647846982339, -.014336322243684486
.38069040695840151, .19972734766915945, .015061443300901584
.38069040695840151, .22011458446302623, -.016452194893329025
.38069040695840151, .2677146293120195, .016681915777622226
.38069040695840151, .29412441926857869, -.018094778739107514
.38069040695840151, .34171795001818506, .017870339953033595
.38069040695840151, .37405688715424723, -.019216813966820036
.38069040695840151, .41982067717988736, .018595934246733985
.38069040695840151, .45761249347913235, -.019786019478821568
.38069040695840151, .5, .018839905327296326
.38069040695840151, .54238750652086765, -.019786019478821568
.38069040695840151, .58017932282011264, .018595934246733985
.38069040695840151, .62594311284575277, -.019216813966820036
.38069040695840151, .65828204998181494, .017870339953033595
.38069040695840151, .70587558073142131, -.018094778739107514
.38069040695840151, .7322853706879805, .016681915777622226
.38069040695840151, .77988541553697377, -.016452194893329025
.38069040695840151, .80027265233084055, .015061443300901584
.38069040695840151, .84584352153017661, -.014336322243684486
.38069040695840151, .86048308866761469, .013050897021282606
.38069040695840151, .90185247948626157, -.011808047255395875
.38069040695840151, .91135732826857141, .010702363997875414
.38069040695840151, .94630123324877791, -.0089401660365391843
.38069040695840151, .95157795180740901, .0080767259132855911
.38069040695840151, .9779119747856988, -.0058155325447380047
.38069040695840151, .98010407606741501, .005242300292692877
.38069040695840151, .9957825842104655, -.0025286084847381328
.38069040695840151, .99620342192179212, .0022766104760977828
.38477084202243261, .0092196828766404337, .0026687462868777985
.38477084202243261, .010885670926971569, -.0031492151019313764
.38477084202243261, .047941371814762546, .0060496426953478765
.38477084202243261, .056468700115952286, -.0071041813452771283
.38477084202243261, .11504866290284765, .0090557583184894021
.38477084202243261, .13492399721297532, -.0105385853451435
.38477084202243261, .20634102285669131, .011493342861181208
.38477084202243261, .24045193539659415, -.013191956667338352
.38477084202243261, .31608425050090994, .013208858433887518
.38477084202243261, .36522842202382755, -.014867062029830314
.38477084202243261, .43738329574426549, .014094446469940751
.38477084202243261, .5, -.015439589152407769
.38477084202243261, .56261670425573451, .014094446469940751
.38477084202243261, .63477157797617245, -.014867062029830314
.38477084202243261, .68391574949909006, .013208858433887518
.38477084202243261, .75954806460340585, -.013191956667338352
.38477084202243261, .79365897714330869, .011493342861181208
.38477084202243261, .86507600278702468, -.0105385853451435
.38477084202243261, .88495133709715235, .0090557583184894021
.38477084202243261, .94353129988404771, -.0071041813452771283
.38477084202243261, .95205862818523745, .0060496426953478765
.38477084202243261, .98911432907302843, -.0031492151019313764
.38477084202243261, .99078031712335957, .0026687462868777985
.38610707442917747, .046910077030668074, .0088357727548705692
.38610707442917747, .069431844202973769, -.012972636527029643
.38610707442917747, .2307653449471585, .01784961704745075
.38610707442917747, .33000947820757187, -.024320610091121381
.38610707442917747, .5, .021215713631659406
.38610707442917747, .66999052179242813, -.024320610091121381
.38610707442917747, .7692346550528415, .01784961704745075
.38610707442917747, .93056815579702623, -.012972636527029643
.38610707442917747, .95308992296933193, .0088357727548705692
.39606978665588932, .1127016653792583, .018964096992502108
.39606978665588932, .21132486540518713, -.034135374586503869
.39606978665588932, .5, .030342555188003526
.39606978665588932, .78867513459481287, -.034135374586503869
.39606978665588932, .8872983346207417, .018964096992502108
.3994029530012827, .013046735741414128, .0033074234699818688
.3994029530012827, .015919880246186957, -.0040318494004096825
.3994029530012827, .067468316655507676, .0074139632990226694
.3994029530012827, .081984446336682115, -.0089615707120729061
.3994029530012827, .16029521585048778, .010868408082240174
.3994029530012827, .19331428364970482, -.012928341894841966
.3994029530012827, .28330230293537639, .013357748765460351
.3994029530012827, .33787328829809549, -.015494873608657511
.3994029530012827, .42556283050918442, .014660327715072993
.3994029530012827, .5, -.016382471431591956
.3994029530012827, .57443716949081558, .014660327715072993
.3994029530012827, .66212671170190451, -.015494873608657511
.3994029530012827, .71669769706462361, .013357748765460351
.3994029530012827, .80668571635029518, -.012928341894841966
.3994029530012827, .83970478414951222, .010868408082240174
.3994029530012827, .91801555366331788, -.0089615707120729061
.3994029530012827, .93253168334449232, .0074139632990226694
.3994029530012827, .98408011975381304, -.0040318494004096825
.3994029530012827, .98695326425858587, .0033074234699818688
.4044405662631918, .5, .062918728173414359
.40828267875217505, .0047122623427913179, .002189549461632744
.40828267875217505, .0052995325041750307, -.0024619391768704161
.40828267875217505, .024662239115616158, .0050285679844353061
.40828267875217505, .0277124884633837, -.0056445858976761016
.40828267875217505, .059880423136507099, .0077103079988995824
.40828267875217505, .067184398806084067, -.0086281122594152222
.40828267875217505, .10924299805159932, .010144614249757654
.40828267875217505, .12229779582249845, -.011300226703377646
.40828267875217505, .17116442039165469, .012252942347044413
.40828267875217505, .19106187779867811, -.013564009800555924
.40828267875217505, .24365473145676153, .013967474860184318
.40828267875217505, .27099161117138637, -.015337581609323839
.40828267875217505, .32438411827306179, .01523309084829666
.40828267875217505, .35919822461037054, -.016556824356575701
.40828267875217505, .41075790925207611, .016009107496505113
.40828267875217505, .45249374508118123, -.017177666040796277
.40828267875217505, .5, .016270581195670656
.40828267875217505, .54750625491881877, -.017177666040796277
.40828267875217505, .58924209074792389, .016009107496505113
.40828267875217505, .64080177538962946, -.016556824356575701
.40828267875217505, .67561588172693821, .01523309084829666
.40828267875217505, .72900838882861363, -.015337581609323839
.40828267875217505, .75634526854323847, .013967474860184318
.40828267875217505, .80893812220132189, -.013564009800555924
.40828267875217505, .82883557960834531, .012252942347044413
.40828267875217505, .87770220417750155, -.011300226703377646
.40828267875217505, .89075700194840068, .010144614249757654
.40828267875217505, .93281560119391593, -.0086281122594152222
.40828267875217505, .9401195768634929, .0077103079988995824
.40828267875217505, .9722875115366163, -.0056445858976761016
.40828267875217505, .97533776088438384, .0050285679844353061
.40828267875217505, .99470046749582497, -.0024619391768704161
.40828267875217505, .99528773765720868, .002189549461632744
.41075790925207611, .019855071751231912, .0044682960569421551
.41075790925207611, .025446043828620812, -.0057155539827820215
.41075790925207611, .10166676129318652, .0098160492663496319
.41075790925207611, .12923440720030277, -.012346385156770237
.41075790925207611, .2372337950418355, .013847223521951349
.41075790925207611, .29707742431130146, -.016854236676899972
.41075790925207611, .40828267875217505, .016009107496505113
.41075790925207611, .5, -.018449001050592058
.41075790925207611, .59171732124782495, .016009107496505113
.41075790925207611, .70292257568869854, -.016854236676899972
.41075790925207611, .7627662049581645, .013847223521951349
.41075790925207611, .87076559279969723, -.012346385156770237
