.89833323870681348, .69707567353878175, -.010349668939583952
.89833323870681348, .72900838882861363, .0094043004418983417
.89833323870681348, .78548608630426942, -.0092437794968311376
.89833323870681348, .80893812220132189, .0083168276857765351
.89833323870681348, .86220886568008503, -.0077594679341443209
.89833323870681348, .87770220417750155, .0069287798876664503
.89833323870681348, .92410329170521366, -.0059575445746767987
.89833323870681348, .93281560119391593, .0052903620662491267
.89833323870681348, .96863669620035298, -.0039120186077002328
.89833323870681348, .9722875115366163, .0034610007629611371
.89833323870681348, .99399625901024269, -.0017097344419727601
.89833323870681348, .99470046749582497, .001509548002984676
.90078904536665494, .010885670926971569, .0019327223310820919
.90078904536665494, .013046735741414128, -.0023147209038047586
.90078904536665494, .056468700115952286, .0043599466805723189
.90078904536665494, .067468316655507676, -.0051887083659060869
.90078904536665494, .13492399721297532, .0064676938777798202
.90078904536665494, .16029521585048778, -.0076063230509698931
.90078904536665494, .24045193539659415, .008096109162564185
.90078904536665494, .28330230293537639, -.0093485036239864313
.90078904536665494, .36522842202382755, .0091241473994626583
.90078904536665494, .42556283050918442, -.010260121610279839
.90078904536665494, .5, .0094755162069718683
.90078904536665494, .57443716949081558, -.010260121610279839
.90078904536665494, .63477157797617245, .0091241473994626583
.90078904536665494, .71669769706462361, -.0093485036239864313
.90078904536665494, .75954806460340585, .008096109162564185
.90078904536665494, .83970478414951222, -.0076063230509698931
.90078904536665494, .86507600278702468, .0064676938777798202
.90078904536665494, .93253168334449232, -.0051887083659060869
.90078904536665494, .94353129988404771, .0043599466805723189
.90078904536665494, .98695326425858587, -.0023147209038047586
.90078904536665494, .98911432907302843, .0019327223310820919
.90185247948626157, .033765242898423975, .0043234611165562193
.90185247948626157, .046910077030668074, -.0059789710203266531
.90185247948626157, .16939530676686765, .0091040026546197993
.90185247948626157, .2307653449471585, -.012078439092020304
.90185247948626157, .38069040695840151, .011808047255395891
.90185247948626157, .5, -.014356201828449905
.90185247948626157, .61930959304159849, .011808047255395891
.90185247948626157, .7692346550528415, -.012078439092020304
.90185247948626157, .83060469323313235, .0091040026546197993
.90185247948626157, .95308992296933193, -.0059789710203266531
.90185247948626157, .96623475710157603, .0043234611165562193
.90244420080942001, .5, .039640705888359627
.91135732826857141, .046910077030668074, .0054191114591825131
.91135732826857141, .069431844202973769, -.0079563118257748536
.91135732826857141, .2307653449471585, .010947436853278017
.91135732826857141, .33000947820757187, -.014916193579837754
.91135732826857141, .5, .013011914186304157
.91135732826857141, .66999052179242813, -.014916193579837754
.91135732826857141, .7692346550528415, .010947436853278017
.91135732826857141, .93056815579702623, -.0079563118257748536
.91135732826857141, .95308992296933193, .0054191114591825131
.91360065753488251, .013046735741414128, .0020254516165580951
.91360065753488251, .015919880246186957, -.002469086876807869
.91360065753488251, .067468316655507676, .0045402785840393681
.91360065753488251, .081984446336682115, -.0054880265712594859
.91360065753488251, .16029521585048778, .0066557654075385464
.91360065753488251, .19331428364970482, -.0079172598332160216
.91360065753488251, .28330230293537639, .0081802267160929597
.91360065753488251, .33787328829809549, -.00948899259011147
.91360065753488251, .42556283050918442, .0089779203477469479
.91360065753488251, .5, -.010032553601162128
.91360065753488251, .57443716949081558, .0089779203477469479
.91360065753488251, .66212671170190451, -.00948899259011147
.91360065753488251, .71669769706462361, .0081802267160929597
.91360065753488251, .80668571635029518, -.0079172598332160216
.91360065753488251, .83970478414951222, .0066557654075385464
.91360065753488251, .91801555366331788, -.0054880265712594859
.91360065753488251, .93253168334449232, .0045402785840393681
.91360065753488251, .98408011975381304, -.002469086876807869
.91360065753488251, .98695326425858587, .0020254516165580951
.91801555366331788, .0060037409897573113, .0013888791505005103
.91801555366331788, .0068580956515937874, -.0015860664783816354
.91801555366331788, .031363303799647024, .0031778742635234654
.91801555366331788, .035782558168213185, -.0036201027525572336
.91801555366331788, .075896708294786341, .0048395290197223882
.91801555366331788, .08639934246511749, -.0054880265712594859
.91801555366331788, .13779113431991497, .0063032965635735939
.91801555366331788, .15635354759415732, -.0070996157506335467
.91801555366331788, .21451391369573058, .0075090565527587408
.91801555366331788, .24237568182092295, -.0083792925606653006
.91801555366331788, .30292432646121825, .0084074105614817436
.91801555366331788, .34044381553605518, -.0092671812621657225
.91801555366331788, .3994029530012827, .0089615707120729183
.91801555366331788, .44597252564632817, -.0097217547980517939
.91801555366331788, .5, .0091488467001627216
.91801555366331788, .55402747435367183, -.0097217547980517939
.91801555366331788, .6005970469987173, .0089615707120729183
.91801555366331788, .65955618446394482, -.0092671812621657225
.91801555366331788, .69707567353878175, .0084074105614817436
.91801555366331788, .75762431817907705, -.0083792925606653006
.91801555366331788, .78548608630426942, .0075090565527587408
.91801555366331788, .84364645240584268, -.0070996157506335467
.91801555366331788, .86220886568008503, .0063032965635735939
.91801555366331788, .91360065753488251, -.0054880265712594859
.91801555366331788, .92410329170521366, .0048395290197223882
.91801555366331788, .96421744183178681, -.0036201027525572336
.91801555366331788, .96863669620035298, .0031778742635234654
.91801555366331788, .99314190434840621, -.0015860664783816354
.91801555366331788, .99399625901024269, .0013888791505005103
.91955848591110945, .069431844202973769, .007242054511179037
.91955848591110945, .1127016653792583, -.011566214107875672
.91955848591110945, .33000947820757187, .013577130882997222
.91955848591110945, .5, -.018505942572601172
.91955848591110945, .66999052179242813, .013577130882997222
.91955848591110945, .8872983346207417, -.011566214107875672
.91955848591110945, .93056815579702623, .007242054511179037
.92410329170521366, .015919880246186957, .0021773250251929978
.92410329170521366, .019855071751231912, -.0027118927594772428
.92410329170521366, .081984446336682115, .0048395290197223882
.92410329170521366, .10166676129318652, -.0059575445746767987
.92410329170521366, .19331428364970482, .0069817097679864201
.92410329170521366, .2372337950418355, -.0084041399069114918
.92410329170521366, .33787328829809549, .008367717322701692
.92410329170521366, .40828267875217505, -.0097162278757275938
.92410329170521366, .5, .0088470479623792581
.92410329170521366, .59171732124782495, -.0097162278757275938
.92410329170521366, .66212671170190451, .008367717322701692
.92410329170521366, .7627662049581645, -.0084041399069114918
.92410329170521366, .80668571635029518, .0069817097679864201
.92410329170521366, .89833323870681348, -.0059575445746767987
.92410329170521366, .91801555366331788, .0048395290197223882
.92410329170521366, .98014492824876809, -.0027118927594772428
.92410329170521366, .98408011975381304, .0021773250251929978
.92668168229165859, .1127016653792583, .010569460226163804
.92668168229165859, .21132486540518713, -.019025028407094892
.92668168229165859, .5, .016911136361862176
.92668168229165859, .78867513459481287, -.019025028407094892
.92668168229165859, .8872983346207417, .010569460226163804
.93056815579702623, .0034357004074525577, .0015317794314097949
.93056815579702623, .0037965780782078795, -.0016924693326871997
.93056815579702623, .01801403636104304, .0035308510188931802
.93056815579702623, .019895923932584991, -.003897211477884258
.93056815579702623, .043882785874337027, .0054501939169270854
.93056815579702623, .048422048192590994, -.0060043696803970753
.93056815579702623, .080441514088890553, .007242054511179037
.93056815579702623, .088642671731428591, -.0079563118257748536
.93056815579702623, .1268340467699246, .0088642215109669999
.93056815579702623, .13951691133238531, -.0097022495523431916
.93056815579702623, .18197315963674243, .010278635152891862
.93056815579702623, .19972734766915945, -.011196922424988494
.93056815579702623, .24456649902458638, .011452132733525014
.93056815579702623, .2677146293120195, -.012401608075040628
.93056815579702623, .31314695564229023, .012357205025395029
.93056815579702623, .34171795001818506, -.013285101976270232
.93056815579702623, .38610707442917747, .01297263652702966
.93056815579702623, .41982067717988736, -.013824520600120927
.93056815579702623, .46173673943325133, .013284001456144943
.93056815579702623, .5, -.014005892677711497
.93056815579702623, .53826326056674867, .013284001456144943
.93056815579702623, .58017932282011264, -.013824520600120927
.93056815579702623, .61389292557082253, .01297263652702966
.93056815579702623, .65828204998181494, -.013285101976270232
.93056815579702623, .68685304435770977, .012357205025395029
.93056815579702623, .7322853706879805, -.012401608075040628
.93056815579702623, .75543350097541362, .011452132733525014
.93056815579702623, .80027265233084055, -.011196922424988494
.93056815579702623, .81802684036325757, .010278635152891862
.93056815579702623, .86048308866761469, -.0097022495523431916
.93056815579702623, .8731659532300754, .0088642215109669999
.93056815579702623, .91135732826857141, -.0079563118257748536
.93056815579702623, .91955848591110945, .007242054511179037
.93056815579702623, .95157795180740901, -.0060043696803970753
.93056815579702623, .95611721412566297, .0054501939169270854
.93056815579702623, .98010407606741501, -.003897211477884258
.93056815579702623, .98198596363895696, .0035308510188931802
.93056815579702623, .99620342192179212, -.0016924693326871997
.93056815579702623, .99656429959254744, .0015317794314097949
.93253168334449232, .0068580956515937874, .0013121626820050596
.93253168334449232, .0079084726407059325, -.0015125972827986292
.93253168334449232, .035782558168213185, .0029949335678390305
.93253168334449232, .041200800388510928, -.0034419206091309091
.93253168334449232, .08639934246511749, .0045402785840393681
.93253168334449232, .099210954633345061, -.0051887083659060869
.93253168334449232, .15635354759415732, .0058735563556341196
.93253168334449232, .17882533027982994, -.0066560392926566063
.93253168334449232, .24237568182092295, .0069322409555786823
.93253168334449232, .27575362448177665, -.0077645971698823684
.93253168334449232, .34044381553605518, .0076667968116935934
.93253168334449232, .38477084202243261, -.0084545816450935889
.93253168334449232, .44597252564632817, .0080428683308555217
.93253168334449232, .5, -.0086887858443543773
.93253168334449232, .55402747435367183, .0080428683308555217
.93253168334449232, .61522915797756739, -.0084545816450935889
.93253168334449232, .65955618446394482, .0076667968116935934
.93253168334449232, .72424637551822335, -.0077645971698823684
.93253168334449232, .75762431817907705, .0069322409555786823
.93253168334449232, .82117466972017006, -.0066560392926566063
.93253168334449232, .84364645240584268, .0058735563556341196
.93253168334449232, .90078904536665494, -.0051887083659060869
.93253168334449232, .91360065753488251, .0045402785840393681
.93253168334449232, .95879919961148907, -.0034419206091309091
.93253168334449232, .96421744183178681, .0029949335678390305
.93253168334449232, .99209152735929407, -.0015125972827986292
.93253168334449232, .99314190434840621, .0013121626820050596
.93281560119391593, .019855071751231912, .0024081892132972256
.93281560119391593, .025446043828620812, -.0030803991664717588
.93281560119391593, .10166676129318652, .0052903620662491267
.93281560119391593, .12923440720030277, -.0066540871909222202
.93281560119391593, .2372337950418355, .0074629643816617299
.93281560119391593, .29707742431130146, -.0090835948304296577
.93281560119391593, .40828267875217505, .0086281122594152344
.93281560119391593, .5, -.0099430934655993682
.93281560119391593, .59171732124782495, .0086281122594152344
.93281560119391593, .70292257568869854, -.0090835948304296577
.93281560119391593, .7627662049581645, .0074629643816617299
.93281560119391593, .87076559279969723, -.0066540871909222202
.93281560119391593, .89833323870681348, .0052903620662491267
.93281560119391593, .97455395617137919, -.0030803991664717588
.93281560119391593, .98014492824876809, .0024081892132972256
.93290628886015003, .21132486540518713, .017449117106130185
.93290628886015003, .5, -.034898234212260369
.93290628886015003, .78867513459481287, .017449117106130185
.93837617913522076, .5, .032116210704263057
.9401195768634929, .025446043828620812, .0027527256969951085
.9401195768634929, .033765242898423975, -.0036421937360800109
.9401195768634929, .12923440720030277, .005946267288949262
.9401195768634929, .16939530676686765, -.0076694436582151818
.9401195768634929, .29707742431130146, .0081173392016774155
.9401195768634929, .38069040695840151, -.0099473996849996724
.9401195768634929, .5, .0088854097833461626
.9401195768634929, .61930959304159849, -.0099473996849996724
.9401195768634929, .70292257568869854, .0081173392016774155
.9401195768634929, .83060469323313235, -.0076694436582151818
.9401195768634929, .87076559279969723, .005946267288949262
.9401195768634929, .96623475710157603, -.0036421937360800109
.9401195768634929, .97455395617137919, .0027527256969951085
.94353129988404771, .0079084726407059325, .0012709990689617333
.94353129988404771, .0092196828766404337, -.0014810740432622384
.94353129988404771, .041200800388510928, .0028921629963208021
.94353129988404771, .047941371814762546, -.0033573700172050192
.94353129988404771, .099210954633345061, .0043599466805723189
.94353129988404771, .11504866290284765, -.0050256739104495079
.94353129988404771, .17882533027982994, .0055929095206932941
.94353129988404771, .20634102285669131, -.0063784601277792037
.94353129988404771, .27575362448177665, .0065244040076047286
.94353129988404771, .31608425050090994, -.0073305197514461611
.94353129988404771, .38477084202243261, .0071041813452771378
.94353129988404771, .43738329574426549, -.0078219945160842453
.94353129988404771, .5, .007300977493592725
.94353129988404771, .56261670425573451, -.0078219945160842453
.94353129988404771, .61522915797756739, .0071041813452771378
.94353129988404771, .68391574949909006, -.0073305197514461611
.94353129988404771, .72424637551822335, .0065244040076047286
.94353129988404771, .79365897714330869, -.0063784601277792037
.94353129988404771, .82117466972017006, .0055929095206932941
.94353129988404771, .88495133709715235, -.0050256739104495079
.94353129988404771, .90078904536665494, .0043599466805723189
.94353129988404771, .95205862818523745, -.0033573700172050192
.94353129988404771, .95879919961148907, .0028921629963208021
.94353129988404771, .99078031712335957, -.0014810740432622384
.94353129988404771, .99209152735929407, .0012709990689617333
.94630123324877791, .033765242898423975, .003273399860156458
.94630123324877791, .046910077030668074, -.0045268275518587711
.94630123324877791, .16939530676686765, .0068928666670267161
.94630123324877791, .2307653449471585, -.0091448864159603092
.94630123324877791, .38069040695840151, .0089401660365391964
.94630123324877791, .5, -.010869437191806585
.94630123324877791, .61930959304159849, .0089401660365391964
.94630123324877791, .7692346550528415, -.0091448864159603092
.94630123324877791, .83060469323313235, .0068928666670267161
.94630123324877791, .95308992296933193, -.0045268275518587711
.94630123324877791, .96623475710157603, .003273399860156458
.95157795180740901, .046910077030668074, .0040896271102394818
.95157795180740901, .069431844202973769, -.0060043696803970753
.95157795180740901, .2307653449471585, .0082616744239385684
.95157795180740901, .33000947820757187, -.011256766004013293
.95157795180740901, .5, .0098196683004646377
.95157795180740901, .66999052179242813, -.011256766004013293
.95157795180740901, .7692346550528415, .0082616744239385684
.95157795180740901, .93056815579702623, -.0060043696803970753
.95157795180740901, .95308992296933193, .0040896271102394818
.95205862818523745, .0092196828766404337, .0012612246691939175
.95205862818523745, .010885670926971569, -.0014882897616320921
.95205862818523745, .047941371814762546, .002859004861083259
.95205862818523745, .056468700115952286, -.0033573700172050192
.95205862818523745, .11504866290284765, .0042796671402206788
.95205862818523745, .13492399721297532, -.0049804373990344373
.95205862818523745, .20634102285669131, .0054316469194920138
.95205862818523745, .24045193539659415, -.0062343960029446433
.95205862818523745, .31608425050090994, .0062423836205872715
.95205862818523745, .36522842202382755, -.007026035214608161
.95205862818523745, .43738329574426549, .0066609042882525508
.95205862818523745, .5, -.0072966062068106742
.95205862818523745, .56261670425573451, .0066609042882525508
.95205862818523745, .63477157797617245, -.007026035214608161
.95205862818523745, .68391574949909006, .0062423836205872715
.95205862818523745, .75954806460340585, -.0062343960029446433
.95205862818523745, .79365897714330869, .0054316469194920138
.95205862818523745, .86507600278702468, -.0049804373990344373
.95205862818523745, .88495133709715235, .0042796671402206788
.95205862818523745, .94353129988404771, -.0033573700172050192
.95205862818523745, .95205862818523745, .002859004861083259
.95205862818523745, .98911432907302843, -.0014882897616320921
.95205862818523745, .99078031712335957, .0012612246691939175
.95308992296933193, .0037965780782078795, .0011527552157229546
.95308992296933193, .0042174157895344955, -.0012803536880403963
.95308992296933193, .019895923932584991, .0026544237884496701
.95308992296933193, .022088025214301199, -.0029446783029146448
.95308992296933193, .048422048192590994, .0040896271102394818
.95308992296933193, .053698766751222093, -.0045268275518587711
.95308992296933193, .088642671731428591, .0054191114591825131
.95308992296933193, .098147520513738429, -.0059789710203266531
.95308992296933193, .13951691133238531, .0066082844514243179
.95308992296933193, .15415647846982339, -.0072591558433918396
.95308992296933193, .19972734766915945, .0076263188207713961
.95308992296933193, .22011458446302623, -.0083305219195349989
.95308992296933193, .2677146293120195, .0084468404335319002
.95308992296933193, .29412441926857869, -.0091622395608984726
.95308992296933193, .34171795001818506, .0090485956222565375
.95308992296933193, .37405688715424723, -.0097303788954707614
.95308992296933193, .41982067717988736, .0094159982215785022
.95308992296933193, .45761249347913235, -.010018594481609459
.95308992296933193, .5, .0095395322817774415
.95308992296933193, .54238750652086765, -.010018594481609459
.95308992296933193, .58017932282011264, .0094159982215785022
.95308992296933193, .62594311284575277, -.0097303788954707614
.95308992296933193, .65828204998181494, .0090485956222565375
.95308992296933193, .70587558073142131, -.0091622395608984726
.95308992296933193, .7322853706879805, .0084468404335319002
.95308992296933193, .77988541553697377, -.0083305219195349989
.95308992296933193, .80027265233084055, .0076263188207713961
.95308992296933193, .84584352153017661, -.0072591558433918396
.95308992296933193, .86048308866761469, .0066082844514243179
.95308992296933193, .90185247948626157, -.0059789710203266531
.95308992296933193, .91135732826857141, .0054191114591825131
.95308992296933193, .94630123324877791, -.0045268275518587711
.95308992296933193, .95157795180740901, .0040896271102394818
.95308992296933193, .9779119747856988, -.0029446783029146448
.95308992296933193, .98010407606741501, .0026544237884496701
.95308992296933193, .9957825842104655, -.0012803536880403963
.95308992296933193, .99620342192179212, .0011527552157229546
.95611721412566297, .069431844202973769, .0054501939169270854
.95611721412566297, .1127016653792583, -.0087044511575151556
.95611721412566297, .33000947820757187, .010217818166600232
.95611721412566297, .5, -.01392712185202432
.95611721412566297, .66999052179242813, .010217818166600232
.95611721412566297, .8872983346207417, -.0087044511575151556
.95611721412566297, .93056815579702623, .0054501939169270854
.95879919961148907, .010885670926971569, .0012820679741397105
.95879919961148907, .013046735741414128, -.0015354660584784008
.95879919961148907, .056468700115952286, .0028921629963208021
.95879919961148907, .067468316655507676, -.0034419206091309091
.95879919961148907, .13492399721297532, .0042903334089374589
.95879919961148907, .16029521585048778, -.0050456410772411918
.95879919961148907, .24045193539659415, .005370539836755131
.95879919961148907, .28330230293537639, -.0062013135098054339
.95879919961148907, .36522842202382755, .0060524872011138041
.95879919961148907, .42556283050918442, -.0068060337047763019
.95879919961148907, .5, .0062855670843306576
.95879919961148907, .57443716949081558, -.0068060337047763019
.95879919961148907, .63477157797617245, .0060524872011138041
.95879919961148907, .71669769706462361, -.0062013135098054339
.95879919961148907, .75954806460340585, .005370539836755131
.95879919961148907, .83970478414951222, -.0050456410772411918
.95879919961148907, .86507600278702468, .0042903334089374589
.95879919961148907, .93253168334449232, -.0034419206091309091
.95879919961148907, .94353129988404771, .0028921629963208021
.95879919961148907, .98695326425858587, -.0015354660584784008
.95879919961148907, .98911432907302843, .0012820679741397105
.96004966707520034, .1127016653792583, .0079353368648412866
.96004966707520034, .21132486540518713, -.014283606356714348
.96004966707520034, .5, .012696538983746125
.96004966707520034, .78867513459481287, -.014283606356714348
.96004966707520034, .8872983346207417, .0079353368648412866
.96347838609358694, .21132486540518713, .013073333788170872
.96347838609358694, .5, -.026146667576341744
.96347838609358694, .78867513459481287, .013073333788170872
.96421744183178681, .013046735741414128, .0013360618570384777
.96421744183178681, .015919880246186957, -.0016286998765357263
.96421744183178681, .067468316655507676, .0029949335678390305
.96421744183178681, .081984446336682115, -.0036201027525572336
.96421744183178681, .16029521585048778, .0043903859355177788
.96421744183178681, .19331428364970482, -.0052225137292581398
.96421744183178681, .28330230293537639, .0053959762889184016
.96421744183178681, .33787328829809549, -.0062592860563672964
.96421744183178681, .42556283050918442, .005922164140626498
.96421744183178681, .5, -.0066178387504435719
.96421744183178681, .57443716949081558, .005922164140626498
.96421744183178681, .66212671170190451, -.0062592860563672964
.96421744183178681, .71669769706462361, .0053959762889184016
.96421744183178681, .80668571635029518, -.0052225137292581398
.96421744183178681, .83970478414951222, .0043903859355177788
.96421744183178681, .91801555366331788, -.0036201027525572336
.96421744183178681, .93253168334449232, .0029949335678390305
.96421744183178681, .98408011975381304, -.0016286998765357263
.96421744183178681, .98695326425858587, .0013360618570384777
.96623475710157603, .0042174157895344955, .00092583813617139383
.96623475710157603, .0047122623427913179, -.0010342989326930004
.96623475710157603, .022088025214301199, .0021293299633224636
.96623475710157603, .024662239115616158, -.0023753939293964244
.96623475710157603, .053698766751222093, .003273399860156458
.96623475710157603, .059880423136507099, -.0036421937360800109
.96623475710157603, .098147520513738429, .0043234611165562193
.96623475710157603, .10924299805159932, -.0047921108314594781
.96623475710157603, .15415647846982339, .0052491771445668965
.96623475710157603, .17116442039165469, -.0057880424324584607
.96623475710157603, .22011458446302623, .0060238939906688367
.96623475710157603, .24365473145676153, -.00659795295491164
.96623475710157603, .29412441926857869, .006625318361210838
.96623475710157603, .32438411827306179, -.0071958043798927649
.96623475710157603, .37405688715424723, .0070361462968972065
.96623475710157603, .41075790925207611, -.0075623789675229886
.96623475710157603, .45761249347913235, .0072445582252406958
.96623475710157603, .5, -.0076858938607524598
.96623475710157603, .54238750652086765, .0072445582252406958
.96623475710157603, .58924209074792389, -.0075623789675229886
.96623475710157603, .62594311284575277, .0070361462968972065
.96623475710157603, .67561588172693821, -.0071958043798927649
.96623475710157603, .70587558073142131, .006625318361210838
.96623475710157603, .75634526854323847, -.00659795295491164
.96623475710157603, .77988541553697377, .0060238939906688367
.96623475710157603, .82883557960834531, -.0057880424324584607
.96623475710157603, .84584352153017661, .0052491771445668965
.96623475710157603, .89075700194840068, -.0047921108314594781
.96623475710157603, .90185247948626157, .0043234611165562193
.96623475710157603, .9401195768634929, -.0036421937360800109
.96623475710157603, .94630123324877791, .003273399860156458
.96623475710157603, .97533776088438384, -.0023753939293964244
.96623475710157603, .9779119747856988, .0021293299633224636
.96623475710157603, .99528773765720868, -.0010342989326930004
.96623475710157603, .9957825842104655, .00092583813617139383
.96648554341300807, .5, .024018835865542418
.96863669620035298, .015919880246186957, .0014297393677542864
.96863669620035298, .019855071751231912, -.0017807629979399778
.96863669620035298, .081984446336682115, .0031778742635234654
.96863669620035298, .10166676129318652, -.0039120186077002328
.96863669620035298, .19331428364970482, .0045845361597495185
.96863669620035298, .2372337950418355, -.0055185741852946972
.96863669620035298, .33787328829809549, .0054946573139422082
.96863669620035298, .40828267875217505, -.0063801560810922055
.96863669620035298, .5, .0058094095341152683
.96863669620035298, .59171732124782495, -.0063801560810922055
.96863669620035298, .66212671170190451, .0054946573139422082
.96863669620035298, .7627662049581645, -.0055185741852946972
.96863669620035298, .80668571635029518, .0045845361597495185
.96863669620035298, .89833323870681348, -.0039120186077002328
.96863669620035298, .91801555366331788, .0031778742635234654
.96863669620035298, .98014492824876809, -.0017807629979399778
.96863669620035298, .98408011975381304, .0014297393677542864
.9722875115366163, .019855071751231912, .0015754582768067182
.9722875115366163, .025446043828620812, -.0020152238602720919
.9722875115366163, .10166676129318652, .0034610007629611371
.9722875115366163, .12923440720030277, -.0043531615712116825
.9722875115366163, .2372337950418355, .0048823360472180413
.9722875115366163, .29707742431130146, -.0059425665474039475
.9722875115366163, .40828267875217505, .0056445858976761094
.9722875115366163, .5, -.006504858011548576
.9722875115366163, .59171732124782495, .0056445858976761094
.9722875115366163, .70292257568869854, -.0059425665474039475
.9722875115366163, .7627662049581645, .0048823360472180413
.9722875115366163, .87076559279969723, -.0043531615712116825
.9722875115366163, .89833323870681348, .0034610007629611371
.9722875115366163, .97455395617137919, -.0020152238602720919
.9722875115366163, .98014492824876809, .0015754582768067182
.97455395617137919, .0047122623427913179, .00078171054499229708
.97455395617137919, .0052995325041750307, -.00087895882208303489
.97455395617137919, .024662239115616158, .0017952938211829592
.97455395617137919, .0277124884633837, -.0020152238602720919
.97455395617137919, .059880423136507099, .0027527256969951085
.97455395617137919, .067184398806084067, -.0030803991664717588
.97455395617137919, .10924299805159932, .0036218190421700605
.97455395617137919, .12229779582249845, -.0040343945316707822
.97455395617137919, .17116442039165469, .0043745320248325384
.97455395617137919, .19106187779867811, -.0048426078877280487
.97455395617137919, .24365473145676153, .0049866525403719185
.97455395617137919, .27099161117138637, -.0054758065477761714
.97455395617137919, .32438411827306179, .0054385013709895708
.97455395617137919, .35919822461037054, -.0059110992548527391
.97455395617137919, .41075790925207611, .0057155539827820293
.97455395617137919, .45249374508118123, -.0061327514713612899
.97455395617137919, .5, .0058089050357988592
.97455395617137919, .54750625491881877, -.0061327514713612899
.97455395617137919, .58924209074792389, .0057155539827820293
.97455395617137919, .64080177538962946, -.0059110992548527391
.97455395617137919, .67561588172693821, .0054385013709895708
.97455395617137919, .72900838882861363, -.0054758065477761714
.97455395617137919, .75634526854323847, .0049866525403719185
.97455395617137919, .80893812220132189, -.0048426078877280487
.97455395617137919, .82883557960834531, .0043745320248325384
.97455395617137919, .87770220417750155, -.0040343945316707822
.97455395617137919, .89075700194840068, .0036218190421700605
.97455395617137919, .93281560119391593, -.0030803991664717588
.97455395617137919, .9401195768634929, .0027527256969951085
.97455395617137919, .9722875115366163, -.0020152238602720919
.97455395617137919, .97533776088438384, .0017952938211829592
.97455395617137919, .99470046749582497, -.00087895882208303489
.97455395617137919, .99528773765720868, .00078171054499229708
.97533776088438384, .025446043828620812, .0017952938211829592
.97533776088438384, .033765242898423975, -.0023753939293964244
.97533776088438384, .12923440720030277, .0038780823438405699
.97533776088438384, .16939530676686765, -.0050019167643673198
.97533776088438384, .29707742431130146, .0052940287254649677
.97533776088438384, .38069040695840151, -.0064875716497330904
.97533776088438384, .5, .0057949549060166772
.97533776088438384, .61930959304159849, -.0064875716497330904
.97533776088438384, .70292257568869854, .0052940287254649677
.97533776088438384, .83060469323313235, -.0050019167643673198
.97533776088438384, .87076559279969723, .0038780823438405699
.97533776088438384, .96623475710157603, -.0023753939293964244
.97533776088438384, .97455395617137919, .0017952938211829592
.9779119747856988, .033765242898423975, .0021293299633224636
.9779119747856988, .046910077030668074, -.0029446783029146448
.9779119747856988, .16939530676686765, .004483774715682033
.9779119747856988, .2307653449471585, -.0059487021105188581
.9779119747856988, .38069040695840151, .0058155325447380125
.9779119747856988, .5, -.0070705136206180123
.9779119747856988, .61930959304159849, .0058155325447380125
.9779119747856988, .7692346550528415, -.0059487021105188581
.9779119747856988, .83060469323313235, .004483774715682033
.9779119747856988, .95308992296933193, -.0029446783029146448
.9779119747856988, .96623475710157603, .0021293299633224636
.98010407606741501, .046910077030668074, .0026544237884496701
.98010407606741501, .069431844202973769, -.003897211477884258
.98010407606741501, .2307653449471585, .0053623434440810362
.98010407606741501, .33000947820757187, -.0073063452135406744
.98010407606741501, .5, .0063735789177884533
.98010407606741501, .66999052179242813, -.0073063452135406744
.98010407606741501, .7692346550528415, .0053623434440810362
.98010407606741501, .93056815579702623, -.003897211477884258
.98010407606741501, .95308992296933193, .0026544237884496701
.98014492824876809, .0052995325041750307, .00068715093073383558
.98014492824876809, .0060037409897573113, -.00077827641836256546
.98014492824876809, .0277124884633837, .0015754582768067182
.98014492824876809, .031363303799647024, -.0017807629979399778
.98014492824876809, .067184398806084067, .0024081892132972256
.98014492824876809, .075896708294786341, -.0027118927594772428
.98014492824876809, .12229779582249845, .003154002084893099
.98014492824876809, .13779113431991497, -.0035321338588798412
.98014492824876809, .19106187779867811, .0037858457457031862
.98014492824876809, .21451391369573058, -.0042077970837541773
.98014492824876809, .27099161117138637, .0042808667155824565
.98014492824876809, .30292432646121825, -.0047112013864817632
.98014492824876809, .35919822461037054, .0046211691066551722
.98014492824876809, .3994029530012827, -.0050217322033969253
.98014492824876809, .45249374508118123, .0047944519989209485
.98014492824876809, .5, -.0051266747286003002
.98014492824876809, .54750625491881877, .0047944519989209485
.98014492824876809, .6005970469987173, -.0050217322033969253
.98014492824876809, .64080177538962946, .0046211691066551722
.98014492824876809, .69707567353878175, -.0047112013864817632
.98014492824876809, .72900838882861363, .0042808667155824565
.98014492824876809, .78548608630426942, -.0042077970837541773
.98014492824876809, .80893812220132189, .0037858457457031862
.98014492824876809, .86220886568008503, -.0035321338588798412
.98014492824876809, .87770220417750155, .003154002084893099
.98014492824876809, .92410329170521366, -.0027118927594772428
.98014492824876809, .93281560119391593, .0024081892132972256
.98014492824876809, .96863669620035298, -.0017807629979399778
.98014492824876809, .9722875115366163, .0015754582768067182
.98014492824876809, .99399625901024269, -.00077827641836256546
.98014492824876809, .99470046749582497, .00068715093073383558
.98198596363895696, .069431844202973769, .0035308510188931802
.98198596363895696, .1127016653792583, -.0056390874722759858
.98198596363895696, .33000947820757187, .0066195064312036178
.98198596363895696, .5, -.0090225399556416227
.98198596363895696, .66999052179242813, .0066195064312036178
.98198596363895696, .8872983346207417, -.0056390874722759858
.98198596363895696, .93056815579702623, .0035308510188931802
.98361341928315316, .1127016653792583, .0051324708015072999
.98361341928315316, .21132486540518713, -.0092384474427131616
.98361341928315316, .5, .0082119532824117217
.98361341928315316, .78867513459481287, -.0092384474427131616
.98361341928315316, .8872983346207417, .0051324708015072999
.98408011975381304, .0060037409897573113, .00062486273334239094
.98408011975381304, .0068580956515937874, -.00071357816451282717
.98408011975381304, .031363303799647024, .0014297393677542864
.98408011975381304, .035782558168213185, -.0016286998765357263
.98408011975381304, .075896708294786341, .0021773250251929978
.98408011975381304, .08639934246511749, -.002469086876807869
.98408011975381304, .13779113431991497, .0028358803704144507
.98408011975381304, .15635354759415732, -.0031941478148209399
.98408011975381304, .21451391369573058, .0033783570015350262
.98408011975381304, .24237568182092295, -.0037698799431512935
.98408011975381304, .30292432646121825, .0037825303532607363
.98408011975381304, .34044381553605518, -.0041693449079205063
.98408011975381304, .3994029530012827, .0040318494004096877
.98408011975381304, .44597252564632817, -.00437385950664317
.98408011975381304, .5, .0041161056769655141
.98408011975381304, .55402747435367183, -.00437385950664317
.98408011975381304, .6005970469987173, .0040318494004096877
.98408011975381304, .65955618446394482, -.0041693449079205063
.98408011975381304, .69707567353878175, .0037825303532607363
.98408011975381304, .75762431817907705, -.0037698799431512935
.98408011975381304, .78548608630426942, .0033783570015350262
.98408011975381304, .84364645240584268, -.0031941478148209399
.98408011975381304, .86220886568008503, .0028358803704144507
.98408011975381304, .91360065753488251, -.002469086876807869
.98408011975381304, .92410329170521366, .0021773250251929978
.98408011975381304, .96421744183178681, -.0016286998765357263
.98408011975381304, .96863669620035298, .0014297393677542864
.98408011975381304, .99314190434840621, -.00071357816451282717
.98408011975381304, .99399625901024269, .00062486273334239094
.98503024891771429, .21132486540518713, .0084437253962035726
.98503024891771429, .5, -.016887450792407145
.98503024891771429, .78867513459481287, .0084437253962035726
.98627123560905761, .5, .015494002928489717
.98695326425858587, .0068580956515937874, .00058536540792830552
.98695326425858587, .0079084726407059325, -.00067478075517563897
.98695326425858587, .035782558168213185, .0013360618570384777
.98695326425858587, .041200800388510928, -.0015354660584784008
.98695326425858587, .08639934246511749, .0020254516165580951
.98695326425858587, .099210954633345061, -.0023147209038047586
.98695326425858587, .15635354759415732, .0026202366210048944
.98695326425858587, .17882533027982994, -.0029693080051469874
.98695326425858587, .24237568182092295, .0030925235951832796
.98695326425858587, .27575362448177665, -.003463843814550453
.98695326425858587, .34044381553605518, .0034202143565938928
.98695326425858587, .38477084202243261, -.0037716509556429286
.98695326425858587, .44597252564632817, .0035879826228640893
.98695326425858587, .5, -.0038761311687437352
.98695326425858587, .55402747435367183, .0035879826228640893
.98695326425858587, .61522915797756739, -.0037716509556429286
.98695326425858587, .65955618446394482, .0034202143565938928
.98695326425858587, .72424637551822335, -.003463843814550453
.98695326425858587, .75762431817907705, .0030925235951832796
.98695326425858587, .82117466972017006, -.0029693080051469874
.98695326425858587, .84364645240584268, .0026202366210048944
.98695326425858587, .90078904536665494, -.0023147209038047586
.98695326425858587, .91360065753488251, .0020254516165580951
.98695326425858587, .95879919961148907, -.0015354660584784008
.98695326425858587, .96421744183178681, .0013360618570384777
.98695326425858587, .99209152735929407, -.00067478075517563897
.98695326425858587, .99314190434840621, .00058536540792830552
.98911432907302843, .0079084726407059325, .00056342163410228504
.98911432907302843, .0092196828766404337, -.00065654584496506246
.98911432907302843, .041200800388510928, .0012820679741397105
.98911432907302843, .047941371814762546, -.0014882897616320921
.98911432907302843, .099210954633345061, .0019327223310820919
.98911432907302843, .11504866290284765, -.0022278327940899022
.98911432907302843, .17882533027982994, .002479282871630583
.98911432907302843, .20634102285669131, -.0028275098825881425
.98911432907302843, .27575362448177665, .0028922053975311201
.98911432907302843, .31608425050090994, -.0032495487353525533
.98911432907302843, .38477084202243261, .0031492151019313808
.98911432907302843, .43738329574426549, -.003467414760414734
.98911432907302843, .5, .0032364529372506303
.98911432907302843, .56261670425573451, -.003467414760414734
.98911432907302843, .61522915797756739, .0031492151019313808
.98911432907302843, .68391574949909006, -.0032495487353525533
.98911432907302843, .72424637551822335, .0028922053975311201
.98911432907302843, .79365897714330869, -.0028275098825881425
.98911432907302843, .82117466972017006, .002479282871630583
.98911432907302843, .88495133709715235, -.0022278327940899022
.98911432907302843, .90078904536665494, .0019327223310820919
.98911432907302843, .95205862818523745, -.0014882897616320921
.98911432907302843, .95879919961148907, .0012820679741397105
.98911432907302843, .99078031712335957, -.00065654584496506246
.98911432907302843, .99209152735929407, .00056342163410228504
.99078031712335957, .0092196828766404337, .00055637809079506239
.99078031712335957, .010885670926971569, -.00065654584496506246
.99078031712335957, .047941371814762546, .0012612246691939175
.99078031712335957, .056468700115952286, -.0014810740432622384
.99078031712335957, .11504866290284765, .0018879372493056125
.99078031712335957, .13492399721297532, -.0021970758415073908
.99078031712335957, .20634102285669131, .0023961229246105067
.99078031712335957, .24045193539659415, -.002750248571965879
.99078031712335957, .31608425050090994, .0027537722387340263
.99078031712335957, .36522842202382755, -.0030994731977935356
.99078031712335957, .43738329574426549, .0029383989239880558
.99078031712335957, .5, -.0032188331942661495
.99078031712335957, .56261670425573451, .0029383989239880558
.99078031712335957, .63477157797617245, -.0030994731977935356
.99078031712335957, .68391574949909006, .0027537722387340263
.99078031712335957, .75954806460340585, -.002750248571965879
.99078031712335957, .79365897714330869, .0023961229246105067
.99078031712335957, .86507600278702468, -.0021970758415073908
.99078031712335957, .88495133709715235, .0018879372493056125
.99078031712335957, .94353129988404771, -.0014810740432622384
.99078031712335957, .95205862818523745, .0012612246691939175
.99078031712335957, .98911432907302843, -.00065654584496506246
.99078031712335957, .99078031712335957, .00055637809079506239
.99209152735929407, .010885670926971569, .00056342163410228504
.99209152735929407, .013046735741414128, -.00067478075517563897
.99209152735929407, .056468700115952286, .0012709990689617333
.99209152735929407, .067468316655507676, -.0015125972827986292
.99209152735929407, .13492399721297532, .0018854434467323756
.99209152735929407, .16029521585048778, -.0022173733360280131
.99209152735929407, .24045193539659415, .0023601543692458359
.99209152735929407, .28330230293537639, -.0027252487869215028
.99209152735929407, .36522842202382755, .0026598451080746652
.99209152735929407, .42556283050918442, -.0029910010304043514
.99209152735929407, .5, .0027622751284224777
.99209152735929407, .57443716949081558, -.0029910010304043514
.99209152735929407, .63477157797617245, .0026598451080746652
.99209152735929407, .71669769706462361, -.0027252487869215028
.99209152735929407, .75954806460340585, .0023601543692458359
.99209152735929407, .83970478414951222, -.0022173733360280131
.99209152735929407, .86507600278702468, .0018854434467323756
.99209152735929407, .93253168334449232, -.0015125972827986292
.99209152735929407, .94353129988404771, .0012709990689617333
.99209152735929407, .98695326425858587, -.00067478075517563897
.99209152735929407, .98911432907302843, .00056342163410228504
.99314190434840621, .013046735741414128, .00058536540792830552
.99314190434840621, .015919880246186957, -.00071357816451282717
.99314190434840621, .067468316655507676, .0013121626820050596
.99314190434840621, .081984446336682115, -.0015860664783816354
.99314190434840621, .16029521585048778, .0019235487044018248
.99314190434840621, .19331428364970482, -.0022881267535881204
.99314190434840621, .28330230293537639, .0023641254668669265
.99314190434840621, .33787328829809549, -.0027423651954610641
.99314190434840621, .42556283050918442, .0025946628217351883
.99314190434840621, .5, -.0028994569819873126
.99314190434840621, .57443716949081558, .0025946628217351883
.99314190434840621, .66212671170190451, -.0027423651954610641
.99314190434840621, .71669769706462361, .0023641254668669265
.99314190434840621, .80668571635029518, -.0022881267535881204
.99314190434840621, .83970478414951222, .0019235487044018248
.99314190434840621, .91801555366331788, -.0015860664783816354
.99314190434840621, .93253168334449232, .0013121626820050596
.99314190434840621, .98408011975381304, -.00071357816451282717
.99314190434840621, .98695326425858587, .00058536540792830552
.99399625901024269, .015919880246186957, .00062486273334239094
.99399625901024269, .019855071751231912, -.00077827641836256546
.99399625901024269, .081984446336682115, .0013888791505005103
.99399625901024269, .10166676129318652, -.0017097344419727601
.99399625901024269, .19331428364970482, .0020036559533138892
.99399625901024269, .2372337950418355, -.0024118740991180654
.99399625901024269, .33787328829809549, .0024014213117476029
.99399625901024269, .40828267875217505, -.0027884255395753403
.99399625901024269, .5, .0025389827002486758
.99399625901024269, .59171732124782495, -.0027884255395753403
.99399625901024269, .66212671170190451, .0024014213117476029
.99399625901024269, .7627662049581645, -.0024118740991180654
.99399625901024269, .80668571635029518, .0020036559533138892
.99399625901024269, .89833323870681348, -.0017097344419727601
.99399625901024269, .91801555366331788, .0013888791505005103
.99399625901024269, .98014492824876809, -.00077827641836256546
.99399625901024269, .98408011975381304, .00062486273334239094
.99470046749582497, .019855071751231912, .00068715093073383558
.99470046749582497, .025446043828620812, -.00087895882208303489
.99470046749582497, .10166676129318652, .001509548002984676
.99470046749582497, .12923440720030277, -.0018986723224152081
.99470046749582497, .2372337950418355, .0021294767423490598
.99470046749582497, .29707742431130146, -.0025919062371318807
.99470046749582497, .40828267875217505, .0024619391768704191
.99470046749582497, .5, -.0028371549426157361
.99470046749582497, .59171732124782495, .0024619391768704191
.99470046749582497, .70292257568869854, -.0025919062371318807
.99470046749582497, .7627662049581645, .0021294767423490598
.99470046749582497, .87076559279969723, -.0018986723224152081
.99470046749582497, .89833323870681348, .001509548002984676
.99470046749582497, .97455395617137919, -.00087895882208303489
.99470046749582497, .98014492824876809, .00068715093073383558
.99528773765720868, .025446043828620812, .00078171054499229708
.99528773765720868, .033765242898423975, -.0010342989326930004
.99528773765720868, .12923440720030277, .0016886026269121058
.99528773765720868, .16939530676686765, -.0021779449323249297
.99528773765720868, .29707742431130146, .0023051369259775058
.99528773765720868, .38069040695840151, -.002824831852118652
.99528773765720868, .5, .0025232512385093488
.99528773765720868, .61930959304159849, -.002824831852118652
.99528773765720868, .70292257568869854, .0023051369259775058
.99528773765720868, .83060469323313235, -.0021779449323249297
.99528773765720868, .87076559279969723, .0016886026269121058
.99528773765720868, .96623475710157603, -.0010342989326930004
.99528773765720868, .97455395617137919, .00078171054499229708
.9957825842104655, .033765242898423975, .00092583813617139383
.9957825842104655, .046910077030668074, -.0012803536880403963
.9957825842104655, .16939530676686765, .0019495567607108405
.9957825842104655, .2307653449471585, -.0025865109539190577
.9957825842104655, .38069040695840151, .0025286084847381362
.9957825842104655, .5, -.0030742774793218334
.9957825842104655, .61930959304159849, .0025286084847381362
.9957825842104655, .7692346550528415, -.0025865109539190577
.9957825842104655, .83060469323313235, .0019495567607108405
.9957825842104655, .95308992296933193, -.0012803536880403963
.9957825842104655, .96623475710157603, .00092583813617139383
.99620342192179212, .046910077030668074, .0011527552157229546
.99620342192179212, .069431844202973769, -.0016924693326871997
.99620342192179212, .2307653449471585, .0023287424564833801
.99620342192179212, .33000947820757187, -.0031729777247440274
.99620342192179212, .5, .0027678987704497851
.99620342192179212, .66999052179242813, -.0031729777247440274
.99620342192179212, .7692346550528415, .0023287424564833801
.99620342192179212, .93056815579702623, -.0016924693326871997
.99620342192179212, .95308992296933193, .0011527552157229546
.99656429959254744, .069431844202973769, .0015317794314097949
.99656429959254744, .1127016653792583, -.0024463898804375833
