.33000947820757187, .033765242898423975, .97455395617137919, .0018083941205744097
.33000947820757187, .033765242898423975, .98014492824876809, -.0028275265504278876
.33000947820757187, .033765242898423975, .98408011975381304, .0011350825537125987
.33000947820757187, .035782558168213185, .5, .013068677041072176
.33000947820757187, .041200800388510928, .21132486540518713, .0075095737222308726
.33000947820757187, .041200800388510928, .5, -.03003829488892349
.33000947820757187, .041200800388510928, .78867513459481287, .0075095737222308726
.33000947820757187, .046910077030668074, .013046735741414128, .0012876796777801596
.33000947820757187, .046910077030668074, .015919880246186957, -.0031394410687943333
.33000947820757187, .046910077030668074, .019855071751231912, .0019551117551946991
.33000947820757187, .046910077030668074, .067468316655507676, .002886479448007235
.33000947820757187, .046910077030668074, .081984446336682115, -.0069780193505063421
.33000947820757187, .046910077030668074, .10166676129318652, .0042950317225273578
.33000947820757187, .046910077030668074, .16029521585048778, .004231398955815909
.33000947820757187, .046910077030668074, .19331428364970482, -.010066786594746576
.33000947820757187, .046910077030668074, .2372337950418355, .0060588799711500637
.33000947820757187, .046910077030668074, .28330230293537639, .0052005743389946383
.33000947820757187, .046910077030668074, .33787328829809549, -.01206524295224269
.33000947820757187, .046910077030668074, .40828267875217505, .007004816569386489
.33000947820757187, .046910077030668074, .42556283050918442, .0057077075976606712
.33000947820757187, .046910077030668074, .5, -.012756380140454554
.33000947820757187, .046910077030668074, .57443716949081558, .0057077075976606712
.33000947820757187, .046910077030668074, .59171732124782495, .007004816569386489
.33000947820757187, .046910077030668074, .66212671170190451, -.01206524295224269
.33000947820757187, .046910077030668074, .71669769706462361, .0052005743389946383
.33000947820757187, .046910077030668074, .7627662049581645, .0060588799711500637
.33000947820757187, .046910077030668074, .80668571635029518, -.010066786594746576
.33000947820757187, .046910077030668074, .83970478414951222, .004231398955815909
.33000947820757187, .046910077030668074, .89833323870681348, .0042950317225273578
.33000947820757187, .046910077030668074, .91801555366331788, -.0069780193505063421
.33000947820757187, .046910077030668074, .93253168334449232, .002886479448007235
.33000947820757187, .046910077030668074, .98014492824876809, .0019551117551946991
.33000947820757187, .046910077030668074, .98408011975381304, -.0031394410687943333
.33000947820757187, .046910077030668074, .98695326425858587, .0012876796777801596
.33000947820757187, .047941371814762546, .1127016653792583, .0048430530077857442
.33000947820757187, .047941371814762546, .21132486540518713, -.017434990828028719
.33000947820757187, .047941371814762546, .5, .02518387564048595
.33000947820757187, .047941371814762546, .78867513459481287, -.017434990828028719
.33000947820757187, .047941371814762546, .8872983346207417, .0048430530077857442
.33000947820757187, .056468700115952286, .069431844202973769, .003561017421169225
.33000947820757187, .056468700115952286, .1127016653792583, -.011374531873942783
.33000947820757187, .056468700115952286, .21132486540518713, .010237078686548528
.33000947820757187, .056468700115952286, .33000947820757187, .0066760612653793032
.33000947820757187, .056468700115952286, .5, -.018199250998308547
.33000947820757187, .056468700115952286, .66999052179242813, .0066760612653793032
.33000947820757187, .056468700115952286, .78867513459481287, .010237078686548528
.33000947820757187, .056468700115952286, .8872983346207417, -.011374531873942783
.33000947820757187, .056468700115952286, .93056815579702623, .003561017421169225
.33000947820757187, .067468316655507676, .046910077030668074, .0028864794480072354
.33000947820757187, .067468316655507676, .069431844202973769, -.0084758288291418467
.33000947820757187, .067468316655507676, .1127016653792583, .0067683314747377906
.33000947820757187, .067468316655507676, .2307653449471585, .0058311314914550336
.33000947820757187, .067468316655507676, .33000947820757187, -.015890164479914256
.33000947820757187, .067468316655507676, .5, .017760101789712088
.33000947820757187, .067468316655507676, .66999052179242813, -.015890164479914256
.33000947820757187, .067468316655507676, .7692346550528415, .0058311314914550336
.33000947820757187, .067468316655507676, .8872983346207417, .0067683314747377906
.33000947820757187, .067468316655507676, .93056815579702623, -.0084758288291418467
.33000947820757187, .067468316655507676, .95308992296933193, .0028864794480072354
.33000947820757187, .069431844202973769, .010885670926971569, .0015785646925302952
.33000947820757187, .069431844202973769, .013046735741414128, -.0037811294804693863
.33000947820757187, .069431844202973769, .015919880246186957, .0023046556884935942
.33000947820757187, .069431844202973769, .056468700115952286, .003561017421169225
.33000947820757187, .069431844202973769, .067468316655507676, -.0084758288291418449
.33000947820757187, .069431844202973769, .081984446336682115, .0051225462234074986
.33000947820757187, .069431844202973769, .13492399721297532, .005282534916353652
.33000947820757187, .069431844202973769, .16029521585048778, -.012425036763059359
.33000947820757187, .069431844202973769, .19331428364970482, .0073900023864259491
.33000947820757187, .069431844202973769, .24045193539659415, .006612554667249821
.33000947820757187, .069431844202973769, .28330230293537639, -.01527091347938659
.33000947820757187, .069431844202973769, .33787328829809549, .0088570641058798513
.33000947820757187, .069431844202973769, .36522842202382755, .0074522121996540933
.33000947820757187, .069431844202973769, .42556283050918442, -.016760054410906375
.33000947820757187, .069431844202973769, .5, .017103621323599136
.33000947820757187, .069431844202973769, .57443716949081558, -.016760054410906375
.33000947820757187, .069431844202973769, .63477157797617245, .0074522121996540933
.33000947820757187, .069431844202973769, .66212671170190451, .0088570641058798513
.33000947820757187, .069431844202973769, .71669769706462361, -.01527091347938659
.33000947820757187, .069431844202973769, .75954806460340585, .006612554667249821
.33000947820757187, .069431844202973769, .80668571635029518, .0073900023864259491
.33000947820757187, .069431844202973769, .83970478414951222, -.012425036763059359
.33000947820757187, .069431844202973769, .86507600278702468, .005282534916353652
.33000947820757187, .069431844202973769, .91801555366331788, .0051225462234074986
.33000947820757187, .069431844202973769, .93253168334449232, -.0084758288291418449
.33000947820757187, .069431844202973769, .94353129988404771, .003561017421169225
.33000947820757187, .069431844202973769, .98408011975381304, .0023046556884935942
.33000947820757187, .069431844202973769, .98695326425858587, -.0037811294804693863
.33000947820757187, .069431844202973769, .98911432907302843, .0015785646925302952
.33000947820757187, .081984446336682115, .033765242898423975, .0025229420940430314
.33000947820757187, .081984446336682115, .046910077030668074, -.0069780193505063421
.33000947820757187, .081984446336682115, .069431844202973769, .0051225462234074986
.33000947820757187, .081984446336682115, .16939530676686765, .0053126120259675809
.33000947820757187, .081984446336682115, .2307653449471585, -.014096670049326515
.33000947820757187, .081984446336682115, .33000947820757187, .0096035566180906577
.33000947820757187, .081984446336682115, .38069040695840151, .0068905487214875449
.33000947820757187, .081984446336682115, .5, -.016755032566326915
.33000947820757187, .081984446336682115, .61930959304159849, .0068905487214875449
.33000947820757187, .081984446336682115, .66999052179242813, .0096035566180906577
.33000947820757187, .081984446336682115, .7692346550528415, -.014096670049326515
.33000947820757187, .081984446336682115, .83060469323313235, .0053126120259675809
.33000947820757187, .081984446336682115, .93056815579702623, .0051225462234074986
.33000947820757187, .081984446336682115, .95308992296933193, -.0069780193505063421
.33000947820757187, .081984446336682115, .96623475710157603, .0025229420940430314
.33000947820757187, .08639934246511749, .5, .01981193677498495
.33000947820757187, .099210954633345061, .21132486540518713, .01132071085357386
.33000947820757187, .099210954633345061, .5, -.045282843414295441
.33000947820757187, .099210954633345061, .78867513459481287, .01132071085357386
.33000947820757187, .10166676129318652, .025446043828620812, .0023473150257041107
.33000947820757187, .10166676129318652, .033765242898423975, -.006211571383635173
.33000947820757187, .10166676129318652, .046910077030668074, .0042950317225273586
.33000947820757187, .10166676129318652, .12923440720030277, .0050705243059414977
.33000947820757187, .10166676129318652, .16939530676686765, -.013079836002091557
.33000947820757187, .10166676129318652, .2307653449471585, .0086766232655209469
.33000947820757187, .10166676129318652, .29707742431130146, .0069218492411480788
.33000947820757187, .10166676129318652, .38069040695840151, -.016964771152296589
.33000947820757187, .10166676129318652, .5, .017889669954362655
.33000947820757187, .10166676129318652, .61930959304159849, -.016964771152296589
.33000947820757187, .10166676129318652, .70292257568869854, .0069218492411480788
.33000947820757187, .10166676129318652, .7692346550528415, .0086766232655209469
.33000947820757187, .10166676129318652, .83060469323313235, -.013079836002091557
.33000947820757187, .10166676129318652, .87076559279969723, .0050705243059414977
.33000947820757187, .10166676129318652, .95308992296933193, .0042950317225273586
.33000947820757187, .10166676129318652, .96623475710157603, -.006211571383635173
.33000947820757187, .10166676129318652, .97455395617137919, .0023473150257041107
.33000947820757187, .1127016653792583, .0092196828766404337, .002136469934268958
.33000947820757187, .1127016653792583, .010885670926971569, -.0050422203226321311
.33000947820757187, .1127016653792583, .013046735741414128, .0030194023721584534
.33000947820757187, .1127016653792583, .047941371814762546, .0048430530077857442
.33000947820757187, .1127016653792583, .056468700115952286, -.011374531873942783
.33000947820757187, .1127016653792583, .067468316655507676, .0067683314747377897
.33000947820757187, .1127016653792583, .11504866290284765, .0072496046081972632
.33000947820757187, .1127016653792583, .13492399721297532, -.016873369229839803
.33000947820757187, .1127016653792583, .16029521585048778, .0099219520702264301
.33000947820757187, .1127016653792583, .20634102285669131, .0092010175668987421
.33000947820757187, .1127016653792583, .24045193539659415, -.021121692183726015
.33000947820757187, .1127016653792583, .28330230293537639, .01219451294192719
.33000947820757187, .1127016653792583, .31608425050090994, .010574376833337338
.33000947820757187, .1127016653792583, .36522842202382755, -.023803709774752758
.33000947820757187, .1127016653792583, .42556283050918442, .013383659117516745
.33000947820757187, .1127016653792583, .43738329574426549, .011283336026078564
.33000947820757187, .1127016653792583, .5, -.024720385136479461
.33000947820757187, .1127016653792583, .56261670425573451, .011283336026078564
.33000947820757187, .1127016653792583, .57443716949081558, .013383659117516745
.33000947820757187, .1127016653792583, .63477157797617245, -.023803709774752758
.33000947820757187, .1127016653792583, .68391574949909006, .010574376833337338
.33000947820757187, .1127016653792583, .71669769706462361, .01219451294192719
.33000947820757187, .1127016653792583, .75954806460340585, -.021121692183726015
.33000947820757187, .1127016653792583, .79365897714330869, .0092010175668987421
.33000947820757187, .1127016653792583, .83970478414951222, .0099219520702264301
.33000947820757187, .1127016653792583, .86507600278702468, -.016873369229839803
.33000947820757187, .1127016653792583, .88495133709715235, .0072496046081972632
.33000947820757187, .1127016653792583, .93253168334449232, .0067683314747377897
.33000947820757187, .1127016653792583, .94353129988404771, -.011374531873942783
.33000947820757187, .1127016653792583, .95205862818523745, .0048430530077857442
.33000947820757187, .1127016653792583, .98695326425858587, .0030194023721584534
.33000947820757187, .1127016653792583, .98911432907302843, -.0050422203226321311
.33000947820757187, .1127016653792583, .99078031712335957, .002136469934268958
.33000947820757187, .11504866290284765, .1127016653792583, .0072496046081972632
.33000947820757187, .11504866290284765, .21132486540518713, -.026098576589510206
.33000947820757187, .11504866290284765, .5, .037697943962625886
.33000947820757187, .11504866290284765, .78867513459481287, -.026098576589510206
.33000947820757187, .11504866290284765, .8872983346207417, .0072496046081972632
.33000947820757187, .12923440720030277, .019855071751231912, .0023081183832824462
.33000947820757187, .12923440720030277, .025446043828620812, -.005904790125894367
.33000947820757187, .12923440720030277, .033765242898423975, .0039063807979262269
.33000947820757187, .12923440720030277, .10166676129318652, .0050705243059414968
.33000947820757187, .12923440720030277, .12923440720030277, -.012755161334107553
.33000947820757187, .12923440720030277, .16939530676686765, .0082257478893678262
.33000947820757187, .12923440720030277, .2372337950418355, .0071528454608062158
.33000947820757187, .12923440720030277, .29707742431130146, -.017412263204765382
.33000947820757187, .12923440720030277, .38069040695840151, .010668935793789551
.33000947820757187, .12923440720030277, .40828267875217505, .0082695763310534406
.33000947820757187, .12923440720030277, .5, -.019059828594799818
.33000947820757187, .12923440720030277, .59171732124782495, .0082695763310534406
.33000947820757187, .12923440720030277, .61930959304159849, .010668935793789551
.33000947820757187, .12923440720030277, .70292257568869854, -.017412263204765382
.33000947820757187, .12923440720030277, .7627662049581645, .0071528454608062158
.33000947820757187, .12923440720030277, .83060469323313235, .0082257478893678262
.33000947820757187, .12923440720030277, .87076559279969723, -.012755161334107553
.33000947820757187, .12923440720030277, .89833323870681348, .0050705243059414968
.33000947820757187, .12923440720030277, .96623475710157603, .0039063807979262269
.33000947820757187, .12923440720030277, .97455395617137919, -.005904790125894367
.33000947820757187, .12923440720030277, .98014492824876809, .0023081183832824462
.33000947820757187, .13492399721297532, .069431844202973769, .005282534916353652
.33000947820757187, .13492399721297532, .1127016653792583, -.016873369229839803
.33000947820757187, .13492399721297532, .21132486540518713, .015186032306855859
.33000947820757187, .13492399721297532, .33000947820757187, .0099034973905022059
.33000947820757187, .13492399721297532, .5, -.026997390767743823
.33000947820757187, .13492399721297532, .66999052179242813, .0099034973905022059
.33000947820757187, .13492399721297532, .78867513459481287, .015186032306855859
.33000947820757187, .13492399721297532, .8872983346207417, -.016873369229839803
.33000947820757187, .13492399721297532, .93056815579702623, .005282534916353652
.33000947820757187, .15635354759415732, .5, .025629820947816361
.33000947820757187, .16029521585048778, .046910077030668074, .004231398955815909
.33000947820757187, .16029521585048778, .069431844202973769, -.012425036763059359
.33000947820757187, .16029521585048778, .1127016653792583, .0099219520702264318
.33000947820757187, .16029521585048778, .2307653449471585, .0085480753106357294
.33000947820757187, .16029521585048778, .33000947820757187, -.023293990689755878
.33000947820757187, .16029521585048778, .5, .026035202232274339
.33000947820757187, .16029521585048778, .66999052179242813, -.023293990689755878
.33000947820757187, .16029521585048778, .7692346550528415, .0085480753106357294
.33000947820757187, .16029521585048778, .8872983346207417, .0099219520702264318
.33000947820757187, .16029521585048778, .93056815579702623, -.012425036763059359
.33000947820757187, .16029521585048778, .95308992296933193, .004231398955815909
.33000947820757187, .16939530676686765, .015919880246186957, .0023901671146387762
.33000947820757187, .16939530676686765, .019855071751231912, -.0059539818971721583
.33000947820757187, .16939530676686765, .025446043828620812, .0038079733876321036
.33000947820757187, .16939530676686765, .081984446336682115, .0053126120259675809
.33000947820757187, .16939530676686765, .10166676129318652, -.013079836002091557
.33000947820757187, .16939530676686765, .12923440720030277, .0082257478893678262
.33000947820757187, .16939530676686765, .19331428364970482, .0076641993723074427
.33000947820757187, .16939530676686765, .2372337950418355, -.018451355309750044
.33000947820757187, .16939530676686765, .29707742431130146, .011229092565275441
.33000947820757187, .16939530676686765, .33787328829809549, .0091856946197281641
.33000947820757187, .16939530676686765, .40828267875217505, -.021332054771971538
.33000947820757187, .16939530676686765, .5, .022003482012135936
.33000947820757187, .16939530676686765, .59171732124782495, -.021332054771971538
.33000947820757187, .16939530676686765, .66212671170190451, .0091856946197281641
.33000947820757187, .16939530676686765, .70292257568869854, .011229092565275441
.33000947820757187, .16939530676686765, .7627662049581645, -.018451355309750044
.33000947820757187, .16939530676686765, .80668571635029518, .0076641993723074427
.33000947820757187, .16939530676686765, .87076559279969723, .0082257478893678262
.33000947820757187, .16939530676686765, .89833323870681348, -.013079836002091557
.33000947820757187, .16939530676686765, .91801555366331788, .0053126120259675809
.33000947820757187, .16939530676686765, .97455395617137919, .0038079733876321036
.33000947820757187, .16939530676686765, .98014492824876809, -.0059539818971721583
.33000947820757187, .16939530676686765, .98408011975381304, .0023901671146387762
.33000947820757187, .17882533027982994, .21132486540518713, .014522129776517788
.33000947820757187, .17882533027982994, .5, -.05808851910607115
.33000947820757187, .17882533027982994, .78867513459481287, .014522129776517788
.33000947820757187, .19331428364970482, .033765242898423975, .003639703241836283
.33000947820757187, .19331428364970482, .046910077030668074, -.010066786594746578
.33000947820757187, .19331428364970482, .069431844202973769, .0073900023864259491
.33000947820757187, .19331428364970482, .16939530676686765, .0076641993723074427
.33000947820757187, .19331428364970482, .2307653449471585, -.020336453935575365
.33000947820757187, .19331428364970482, .33000947820757187, .013854497984140686
.33000947820757187, .19331428364970482, .38069040695840151, .0099405977564229111
.33000947820757187, .19331428364970482, .5, -.024171520421622662
.33000947820757187, .19331428364970482, .61930959304159849, .0099405977564229111
.33000947820757187, .19331428364970482, .66999052179242813, .013854497984140686
.33000947820757187, .19331428364970482, .7692346550528415, -.020336453935575365
.33000947820757187, .19331428364970482, .83060469323313235, .0076641993723074427
.33000947820757187, .19331428364970482, .93056815579702623, .0073900023864259491
.33000947820757187, .19331428364970482, .95308992296933193, -.010066786594746578
.33000947820757187, .19331428364970482, .96623475710157603, .003639703241836283
.33000947820757187, .20634102285669131, .1127016653792583, .0092010175668987438
.33000947820757187, .20634102285669131, .21132486540518713, -.033123663240835551
.33000947820757187, .20634102285669131, .5, .047845291347873617
.33000947820757187, .20634102285669131, .78867513459481287, -.033123663240835551
.33000947820757187, .20634102285669131, .8872983346207417, .0092010175668987438
.33000947820757187, .21132486540518713, .0079084726407059325, .0033001809446414174
.33000947820757187, .21132486540518713, .0092196828766404337, -.0076912917633682664
.33000947820757187, .21132486540518713, .010885670926971569, .0045379982903689291
.33000947820757187, .21132486540518713, .041200800388510928, .0075095737222308726
.33000947820757187, .21132486540518713, .047941371814762546, -.017434990828028719
.33000947820757187, .21132486540518713, .056468700115952286, .010237078686548528
.33000947820757187, .21132486540518713, .099210954633345061, .01132071085357386
.33000947820757187, .21132486540518713, .11504866290284765, -.026098576589510206
.33000947820757187, .21132486540518713, .13492399721297532, .015186032306855859
.33000947820757187, .21132486540518713, .17882533027982994, .014522129776517788
.33000947820757187, .21132486540518713, .20634102285669131, -.033123663240835551
.33000947820757187, .21132486540518713, .24045193539659415, .019009522965353461
.33000947820757187, .21132486540518713, .27575362448177665, .01694077856298374
.33000947820757187, .21132486540518713, .31608425050090994, -.038067756600014512
.33000947820757187, .21132486540518713, .36522842202382755, .021423338797277532
.33000947820757187, .21132486540518713, .38477084202243261, .018446184954417549
.33000947820757187, .21132486540518713, .43738329574426549, -.040620009693882936
.33000947820757187, .21132486540518713, .5, .041205517709741304
.33000947820757187, .21132486540518713, .56261670425573451, -.040620009693882936
.33000947820757187, .21132486540518713, .61522915797756739, .018446184954417549
.33000947820757187, .21132486540518713, .63477157797617245, .021423338797277532
.33000947820757187, .21132486540518713, .68391574949909006, -.038067756600014512
.33000947820757187, .21132486540518713, .72424637551822335, .01694077856298374
.33000947820757187, .21132486540518713, .75954806460340585, .019009522965353461
.33000947820757187, .21132486540518713, .79365897714330869, -.033123663240835551
.33000947820757187, .21132486540518713, .82117466972017006, .014522129776517788
.33000947820757187, .21132486540518713, .86507600278702468, .015186032306855859
.33000947820757187, .21132486540518713, .88495133709715235, -.026098576589510206
.33000947820757187, .21132486540518713, .90078904536665494, .01132071085357386
.33000947820757187, .21132486540518713, .94353129988404771, .010237078686548528
.33000947820757187, .21132486540518713, .95205862818523745, -.017434990828028719
.33000947820757187, .21132486540518713, .95879919961148907, .0075095737222308726
.33000947820757187, .21132486540518713, .98911432907302843, .0045379982903689291
.33000947820757187, .21132486540518713, .99078031712335957, -.0076912917633682664
.33000947820757187, .21132486540518713, .99209152735929407, .0033001809446414174
.33000947820757187, .2307653449471585, .013046735741414128, .0026013105775599264
.33000947820757187, .2307653449471585, .015919880246186957, -.0063421527890843987
.33000947820757187, .2307653449471585, .019855071751231912, .0039496258090111853
.33000947820757187, .2307653449471585, .067468316655507676, .0058311314914550336
.33000947820757187, .2307653449471585, .081984446336682115, -.014096670049326515
.33000947820757187, .2307653449471585, .10166676129318652, .0086766232655209451
.33000947820757187, .2307653449471585, .16029521585048778, .0085480753106357277
.33000947820757187, .2307653449471585, .19331428364970482, -.020336453935575365
.33000947820757187, .2307653449471585, .2372337950418355, .01223986743682186
.33000947820757187, .2307653449471585, .28330230293537639, .010505958330207576
.33000947820757187, .2307653449471585, .33787328829809549, -.024373642493609016
.33000947820757187, .2307653449471585, .40828267875217505, .014150804544205154
.33000947820757187, .2307653449471585, .42556283050918442, .011530445345700888
.33000947820757187, .2307653449471585, .5, -.025769845687045986
.33000947820757187, .2307653449471585, .57443716949081558, .011530445345700888
.33000947820757187, .2307653449471585, .59171732124782495, .014150804544205154
.33000947820757187, .2307653449471585, .66212671170190451, -.024373642493609016
.33000947820757187, .2307653449471585, .71669769706462361, .010505958330207576
.33000947820757187, .2307653449471585, .7627662049581645, .01223986743682186
.33000947820757187, .2307653449471585, .80668571635029518, -.020336453935575365
.33000947820757187, .2307653449471585, .83970478414951222, .0085480753106357277
.33000947820757187, .2307653449471585, .89833323870681348, .0086766232655209451
.33000947820757187, .2307653449471585, .91801555366331788, -.014096670049326515
.33000947820757187, .2307653449471585, .93253168334449232, .0058311314914550336
.33000947820757187, .2307653449471585, .98014492824876809, .0039496258090111853
.33000947820757187, .2307653449471585, .98408011975381304, -.0063421527890843987
.33000947820757187, .2307653449471585, .98695326425858587, .0026013105775599264
.33000947820757187, .2372337950418355, .025446043828620812, .0033112910250752258
.33000947820757187, .2372337950418355, .033765242898423975, -.0087624883532944169
.33000947820757187, .2372337950418355, .046910077030668074, .0060588799711500637
.33000947820757187, .2372337950418355, .12923440720030277, .0071528454608062158
.33000947820757187, .2372337950418355, .16939530676686765, -.018451355309750044
.33000947820757187, .2372337950418355, .2307653449471585, .012239867436821861
.33000947820757187, .2372337950418355, .29707742431130146, .0097644572706052264
.33000947820757187, .2372337950418355, .38069040695840151, -.023931723626318208
.33000947820757187, .2372337950418355, .5, .02523645224980816
.33000947820757187, .2372337950418355, .61930959304159849, -.023931723626318208
.33000947820757187, .2372337950418355, .70292257568869854, .0097644572706052264
.33000947820757187, .2372337950418355, .7692346550528415, .012239867436821861
.33000947820757187, .2372337950418355, .83060469323313235, -.018451355309750044
.33000947820757187, .2372337950418355, .87076559279969723, .0071528454608062158
.33000947820757187, .2372337950418355, .95308992296933193, .0060588799711500637
.33000947820757187, .2372337950418355, .96623475710157603, -.0087624883532944169
.33000947820757187, .2372337950418355, .97455395617137919, .0033112910250752258
.33000947820757187, .24045193539659415, .069431844202973769, .006612554667249821
.33000947820757187, .24045193539659415, .1127016653792583, -.021121692183726015
.33000947820757187, .24045193539659415, .21132486540518713, .019009522965353461
.33000947820757187, .24045193539659415, .33000947820757187, .012396968298103639
.33000947820757187, .24045193539659415, .5, -.033794707493961802
.33000947820757187, .24045193539659415, .66999052179242813, .012396968298103639
.33000947820757187, .24045193539659415, .78867513459481287, .019009522965353461
.33000947820757187, .24045193539659415, .8872983346207417, -.021121692183726015
.33000947820757187, .24045193539659415, .93056815579702623, .006612554667249821
.33000947820757187, .24237568182092295, .5, .030249491739050359
.33000947820757187, .27575362448177665, .21132486540518713, .01694077856298374
.33000947820757187, .27575362448177665, .5, -.067763114251934958
.33000947820757187, .27575362448177665, .78867513459481287, .01694077856298374
.33000947820757187, .28330230293537639, .046910077030668074, .0052005743389946383
.33000947820757187, .28330230293537639, .069431844202973769, -.015270913479386588
.33000947820757187, .28330230293537639, .1127016653792583, .01219451294192719
.33000947820757187, .28330230293537639, .2307653449471585, .010505958330207576
.33000947820757187, .28330230293537639, .33000947820757187, -.028629333111551403
.33000947820757187, .28330230293537639, .5, .031998401959617173
.33000947820757187, .28330230293537639, .66999052179242813, -.028629333111551403
.33000947820757187, .28330230293537639, .7692346550528415, .010505958330207576
.33000947820757187, .28330230293537639, .8872983346207417, .01219451294192719
.33000947820757187, .28330230293537639, .93056815579702623, -.015270913479386588
.33000947820757187, .28330230293537639, .95308992296933193, .0052005743389946383
.33000947820757187, .29707742431130146, .019855071751231912, .0031508472331121212
.33000947820757187, .29707742431130146, .025446043828620812, -.0080607181005261808
.33000947820757187, .29707742431130146, .033765242898423975, .0053326593721436449
.33000947820757187, .29707742431130146, .10166676129318652, .006921849241148078
.33000947820757187, .29707742431130146, .12923440720030277, -.017412263204765382
.33000947820757187, .29707742431130146, .16939530676686765, .011229092565275441
.33000947820757187, .29707742431130146, .2372337950418355, .0097644572706052264
.33000947820757187, .29707742431130146, .29707742431130146, -.023769743241216296
.33000947820757187, .29707742431130146, .38069040695840151, .01456432523981117
.33000947820757187, .29707742431130146, .40828267875217505, .011288923432364826
.33000947820757187, .29707742431130146, .5, -.026018859615905315
.33000947820757187, .29707742431130146, .59171732124782495, .011288923432364826
.33000947820757187, .29707742431130146, .61930959304159849, .01456432523981117
.33000947820757187, .29707742431130146, .70292257568869854, -.023769743241216296
.33000947820757187, .29707742431130146, .7627662049581645, .0097644572706052264
.33000947820757187, .29707742431130146, .83060469323313235, .011229092565275441
.33000947820757187, .29707742431130146, .87076559279969723, -.017412263204765382
.33000947820757187, .29707742431130146, .89833323870681348, .006921849241148078
.33000947820757187, .29707742431130146, .96623475710157603, .0053326593721436449
.33000947820757187, .29707742431130146, .97455395617137919, -.0080607181005261808
.33000947820757187, .29707742431130146, .98014492824876809, .0031508472331121212
.33000947820757187, .31608425050090994, .1127016653792583, .010574376833337338
.33000947820757187, .31608425050090994, .21132486540518713, -.038067756600014512
.33000947820757187, .31608425050090994, .5, .054986759533354343
.33000947820757187, .31608425050090994, .78867513459481287, -.038067756600014512
.33000947820757187, .31608425050090994, .8872983346207417, .010574376833337338
.33000947820757187, .33000947820757187, .010885670926971569, .0029594335978386337
.33000947820757187, .33000947820757187, .013046735741414128, -.007088719059301073
.33000947820757187, .33000947820757187, .015919880246186957, .0043206816345583345
.33000947820757187, .33000947820757187, .056468700115952286, .0066760612653793032
.33000947820757187, .33000947820757187, .067468316655507676, -.015890164479914256
.33000947820757187, .33000947820757187, .081984446336682115, .0096035566180906595
.33000947820757187, .33000947820757187, .13492399721297532, .0099034973905022059
.33000947820757187, .33000947820757187, .16029521585048778, -.023293990689755878
.33000947820757187, .33000947820757187, .19331428364970482, .013854497984140686
.33000947820757187, .33000947820757187, .24045193539659415, .012396968298103639
.33000947820757187, .33000947820757187, .28330230293537639, -.028629333111551403
.33000947820757187, .33000947820757187, .33787328829809549, .016604890010010396
.33000947820757187, .33000947820757187, .36522842202382755, .013971126597623439
.33000947820757187, .33000947820757187, .42556283050918442, -.031421118412154024
.33000947820757187, .33000947820757187, .5, .032065224712858664
.33000947820757187, .33000947820757187, .57443716949081558, -.031421118412154024
.33000947820757187, .33000947820757187, .63477157797617245, .013971126597623439
.33000947820757187, .33000947820757187, .66212671170190451, .016604890010010396
.33000947820757187, .33000947820757187, .71669769706462361, -.028629333111551403
.33000947820757187, .33000947820757187, .75954806460340585, .012396968298103639
.33000947820757187, .33000947820757187, .80668571635029518, .013854497984140686
.33000947820757187, .33000947820757187, .83970478414951222, -.023293990689755878
.33000947820757187, .33000947820757187, .86507600278702468, .0099034973905022059
.33000947820757187, .33000947820757187, .91801555366331788, .0096035566180906595
.33000947820757187, .33000947820757187, .93253168334449232, -.015890164479914256
.33000947820757187, .33000947820757187, .94353129988404771, .0066760612653793032
.33000947820757187, .33000947820757187, .98408011975381304, .0043206816345583345
.33000947820757187, .33000947820757187, .98695326425858587, -.007088719059301073
.33000947820757187, .33000947820757187, .98911432907302843, .0029594335978386337
.33000947820757187, .33787328829809549, .033765242898423975, .0043622563638864523
.33000947820757187, .33787328829809549, .046910077030668074, -.01206524295224269
.33000947820757187, .33787328829809549, .069431844202973769, .0088570641058798496
.33000947820757187, .33787328829809549, .16939530676686765, .0091856946197281641
.33000947820757187, .33787328829809549, .2307653449471585, -.024373642493609016
.33000947820757187, .33787328829809549, .33000947820757187, .016604890010010392
.33000947820757187, .33787328829809549, .38069040695840151, .011914003132275627
.33000947820757187, .33787328829809549, .5, -.028970045571857554
.33000947820757187, .33787328829809549, .61930959304159849, .011914003132275627
.33000947820757187, .33787328829809549, .66999052179242813, .016604890010010392
.33000947820757187, .33787328829809549, .7692346550528415, -.024373642493609016
.33000947820757187, .33787328829809549, .83060469323313235, .0091856946197281641
.33000947820757187, .33787328829809549, .93056815579702623, .0088570641058798496
.33000947820757187, .33787328829809549, .95308992296933193, -.01206524295224269
.33000947820757187, .33787328829809549, .96623475710157603, .0043622563638864523
.33000947820757187, .34044381553605518, .5, .033454795975271068
.33000947820757187, .36522842202382755, .069431844202973769, .0074522121996540933
.33000947820757187, .36522842202382755, .1127016653792583, -.023803709774752758
.33000947820757187, .36522842202382755, .21132486540518713, .021423338797277532
.33000947820757187, .36522842202382755, .33000947820757187, .013971126597623439
.33000947820757187, .36522842202382755, .5, -.038085935639604607
.33000947820757187, .36522842202382755, .66999052179242813, .013971126597623439
.33000947820757187, .36522842202382755, .78867513459481287, .021423338797277532
.33000947820757187, .36522842202382755, .8872983346207417, -.023803709774752758
.33000947820757187, .36522842202382755, .93056815579702623, .0074522121996540933
.33000947820757187, .38069040695840151, .015919880246186957, .0031000876547005534
.33000947820757187, .38069040695840151, .019855071751231912, -.0077224164212984364
.33000947820757187, .38069040695840151, .025446043828620812, .0049390066561143435
.33000947820757187, .38069040695840151, .081984446336682115, .0068905487214875449
.33000947820757187, .38069040695840151, .10166676129318652, -.016964771152296585
.33000947820757187, .38069040695840151, .12923440720030277, .010668935793789551
.33000947820757187, .38069040695840151, .19331428364970482, .0099405977564229094
.33000947820757187, .38069040695840151, .2372337950418355, -.023931723626318204
.33000947820757187, .38069040695840151, .29707742431130146, .014564325239811169
.33000947820757187, .38069040695840151, .33787328829809549, .011914003132275627
.33000947820757187, .38069040695840151, .40828267875217505, -.027668040131151813
.33000947820757187, .38069040695840151, .5, .02853889275292671
.33000947820757187, .38069040695840151, .59171732124782495, -.027668040131151813
.33000947820757187, .38069040695840151, .66212671170190451, .011914003132275627
.33000947820757187, .38069040695840151, .70292257568869854, .014564325239811169
.33000947820757187, .38069040695840151, .7627662049581645, -.023931723626318204
.33000947820757187, .38069040695840151, .80668571635029518, .0099405977564229094
.33000947820757187, .38069040695840151, .87076559279969723, .010668935793789551
.33000947820757187, .38069040695840151, .89833323870681348, -.016964771152296585
.33000947820757187, .38069040695840151, .91801555366331788, .0068905487214875449
.33000947820757187, .38069040695840151, .97455395617137919, .0049390066561143435
.33000947820757187, .38069040695840151, .98014492824876809, -.0077224164212984364
.33000947820757187, .38069040695840151, .98408011975381304, .0031000876547005534
.33000947820757187, .38477084202243261, .21132486540518713, .018446184954417549
.33000947820757187, .38477084202243261, .5, -.073784739817670197
.33000947820757187, .38477084202243261, .78867513459481287, .018446184954417549
.33000947820757187, .40828267875217505, .025446043828620812, .0038282630368901287
.33000947820757187, .40828267875217505, .033765242898423975, -.010130523116232344
.33000947820757187, .40828267875217505, .046910077030668074, .0070048165693864899
.33000947820757187, .40828267875217505, .12923440720030277, .0082695763310534423
.33000947820757187, .40828267875217505, .16939530676686765, -.021332054771971538
.33000947820757187, .40828267875217505, .2307653449471585, .014150804544205156
.33000947820757187, .40828267875217505, .29707742431130146, .011288923432364827
.33000947820757187, .40828267875217505, .38069040695840151, -.027668040131151816
.33000947820757187, .40828267875217505, .5, .029176468210911327
.33000947820757187, .40828267875217505, .61930959304159849, -.027668040131151816
.33000947820757187, .40828267875217505, .70292257568869854, .011288923432364827
.33000947820757187, .40828267875217505, .7692346550528415, .014150804544205156
.33000947820757187, .40828267875217505, .83060469323313235, -.021332054771971538
.33000947820757187, .40828267875217505, .87076559279969723, .0082695763310534423
.33000947820757187, .40828267875217505, .95308992296933193, .0070048165693864899
.33000947820757187, .40828267875217505, .96623475710157603, -.010130523116232344
.33000947820757187, .40828267875217505, .97455395617137919, .0038282630368901287
.33000947820757187, .42556283050918442, .046910077030668074, .0057077075976606721
.33000947820757187, .42556283050918442, .069431844202973769, -.016760054410906375
.33000947820757187, .42556283050918442, .1127016653792583, .013383659117516747
.33000947820757187, .42556283050918442, .2307653449471585, .01153044534570089
.33000947820757187, .42556283050918442, .33000947820757187, -.031421118412154024
.33000947820757187, .42556283050918442, .5, .03511872152436419
.33000947820757187, .42556283050918442, .66999052179242813, -.031421118412154024
.33000947820757187, .42556283050918442, .7692346550528415, .01153044534570089
.33000947820757187, .42556283050918442, .8872983346207417, .013383659117516747
.33000947820757187, .42556283050918442, .93056815579702623, -.016760054410906375
.33000947820757187, .42556283050918442, .95308992296933193, .0057077075976606721
.33000947820757187, .43738329574426549, .1127016653792583, .011283336026078566
.33000947820757187, .43738329574426549, .21132486540518713, -.040620009693882936
.33000947820757187, .43738329574426549, .5, .058673347335608729
.33000947820757187, .43738329574426549, .78867513459481287, -.040620009693882936
.33000947820757187, .43738329574426549, .8872983346207417, .011283336026078566
.33000947820757187, .44597252564632817, .5, .03509581976326074
.33000947820757187, .5, .0068580956515937874, .005725746474184527
.33000947820757187, .5, .0079084726407059325, -.01320072377856567
.33000947820757187, .5, .0092196828766404337, .011109643658198616
.33000947820757187, .5, .010885670926971569, -.0080675525162114507
.33000947820757187, .5, .013046735741414128, .007922911824543839
.33000947820757187, .5, .015919880246186957, -.0075381615764502502
.33000947820757187, .5, .019855071751231912, .00814343322329328
.33000947820757187, .5, .025446043828620812, -.008823431138175214
.33000947820757187, .5, .033765242898423975, .01044938171893435
.33000947820757187, .5, .035782558168213185, .013068677041072176
.33000947820757187, .5, .041200800388510928, -.03003829488892349
.33000947820757187, .5, .046910077030668074, -.012756380140454554
.33000947820757187, .5, .047941371814762546, .02518387564048595
.33000947820757187, .5, .056468700115952286, -.018199250998308547
.33000947820757187, .5, .067468316655507676, .017760101789712088
.33000947820757187, .5, .069431844202973769, .017103621323599136
.33000947820757187, .5, .081984446336682115, -.016755032566326915
.33000947820757187, .5, .08639934246511749, .01981193677498495
.33000947820757187, .5, .099210954633345061, -.045282843414295441
.33000947820757187, .5, .10166676129318652, .017889669954362655
.33000947820757187, .5, .1127016653792583, -.024720385136479461
.33000947820757187, .5, .11504866290284765, .037697943962625886
.33000947820757187, .5, .12923440720030277, -.019059828594799821
.33000947820757187, .5, .13492399721297532, -.026997390767743823
.33000947820757187, .5, .15635354759415732, .025629820947816361
.33000947820757187, .5, .16029521585048778, .026035202232274339
.33000947820757187, .5, .16939530676686765, .022003482012135939
.33000947820757187, .5, .17882533027982994, -.05808851910607115
.33000947820757187, .5, .19331428364970482, -.024171520421622659
.33000947820757187, .5, .20634102285669131, .047845291347873617
.33000947820757187, .5, .21132486540518713, .041205517709741304
.33000947820757187, .5, .2307653449471585, -.025769845687045989
.33000947820757187, .5, .2372337950418355, .02523645224980816
.33000947820757187, .5, .24045193539659415, -.033794707493961802
.33000947820757187, .5, .24237568182092295, .030249491739050359
.33000947820757187, .5, .27575362448177665, -.067763114251934958
.33000947820757187, .5, .28330230293537639, .031998401959617173
.33000947820757187, .5, .29707742431130146, -.026018859615905318
.33000947820757187, .5, .31608425050090994, .054986759533354343
.33000947820757187, .5, .33000947820757187, .032065224712858664
.33000947820757187, .5, .33787328829809549, -.028970045571857554
.33000947820757187, .5, .34044381553605518, .033454795975271068
.33000947820757187, .5, .36522842202382755, -.038085935639604614
.33000947820757187, .5, .38069040695840151, .028538892752926717
.33000947820757187, .5, .38477084202243261, -.073784739817670197
.33000947820757187, .5, .40828267875217505, .02917646821091132
.33000947820757187, .5, .42556283050918442, .03511872152436419
.33000947820757187, .5, .43738329574426549, .058673347335608729
.33000947820757187, .5, .44597252564632817, .03509581976326074
.33000947820757187, .5, .5, -.32050248271474263
.33000947820757187, .5, .55402747435367183, .03509581976326074
.33000947820757187, .5, .56261670425573451, .058673347335608729
.33000947820757187, .5, .57443716949081558, .03511872152436419
.33000947820757187, .5, .59171732124782495, .02917646821091132
.33000947820757187, .5, .61522915797756739, -.073784739817670197
.33000947820757187, .5, .61930959304159849, .028538892752926717
.33000947820757187, .5, .63477157797617245, -.038085935639604614
.33000947820757187, .5, .65955618446394482, .033454795975271068
.33000947820757187, .5, .66212671170190451, -.028970045571857554
.33000947820757187, .5, .66999052179242813, .032065224712858664
.33000947820757187, .5, .68391574949909006, .054986759533354343
.33000947820757187, .5, .70292257568869854, -.026018859615905318
.33000947820757187, .5, .71669769706462361, .031998401959617173
.33000947820757187, .5, .72424637551822335, -.067763114251934958
.33000947820757187, .5, .75762431817907705, .030249491739050359
.33000947820757187, .5, .75954806460340585, -.033794707493961802
.33000947820757187, .5, .7627662049581645, .02523645224980816
.33000947820757187, .5, .7692346550528415, -.025769845687045989
.33000947820757187, .5, .78867513459481287, .041205517709741304
.33000947820757187, .5, .79365897714330869, .047845291347873617
.33000947820757187, .5, .80668571635029518, -.024171520421622659
.33000947820757187, .5, .82117466972017006, -.05808851910607115
.33000947820757187, .5, .83060469323313235, .022003482012135939
.33000947820757187, .5, .83970478414951222, .026035202232274339
.33000947820757187, .5, .84364645240584268, .025629820947816361
.33000947820757187, .5, .86507600278702468, -.026997390767743823
.33000947820757187, .5, .87076559279969723, -.019059828594799821
.33000947820757187, .5, .88495133709715235, .037697943962625886
.33000947820757187, .5, .8872983346207417, -.024720385136479461
.33000947820757187, .5, .89833323870681348, .017889669954362655
.33000947820757187, .5, .90078904536665494, -.045282843414295441
.33000947820757187, .5, .91360065753488251, .01981193677498495
.33000947820757187, .5, .91801555366331788, -.016755032566326915
.33000947820757187, .5, .93056815579702623, .017103621323599136
.33000947820757187, .5, .93253168334449232, .017760101789712088
.33000947820757187, .5, .94353129988404771, -.018199250998308547
.33000947820757187, .5, .95205862818523745, .02518387564048595
.33000947820757187, .5, .95308992296933193, -.012756380140454554
.33000947820757187, .5, .95879919961148907, -.03003829488892349
.33000947820757187, .5, .96421744183178681, .013068677041072176
.33000947820757187, .5, .96623475710157603, .01044938171893435
.33000947820757187, .5, .97455395617137919, -.008823431138175214
.33000947820757187, .5, .98014492824876809, .00814343322329328
.33000947820757187, .5, .98408011975381304, -.0075381615764502502
.33000947820757187, .5, .98695326425858587, .007922911824543839
.33000947820757187, .5, .98911432907302843, -.0080675525162114507
.33000947820757187, .5, .99078031712335957, .011109643658198616
.33000947820757187, .5, .99209152735929407, -.01320072377856567
.33000947820757187, .5, .99314190434840621, .005725746474184527
.33000947820757187, .55402747435367183, .5, .03509581976326074
.33000947820757187, .56261670425573451, .1127016653792583, .011283336026078566
.33000947820757187, .56261670425573451, .21132486540518713, -.040620009693882936
.33000947820757187, .56261670425573451, .5, .058673347335608729
.33000947820757187, .56261670425573451, .78867513459481287, -.040620009693882936
.33000947820757187, .56261670425573451, .8872983346207417, .011283336026078566
.33000947820757187, .57443716949081558, .046910077030668074, .0057077075976606721
.33000947820757187, .57443716949081558, .069431844202973769, -.016760054410906375
.33000947820757187, .57443716949081558, .1127016653792583, .013383659117516747
.33000947820757187, .57443716949081558, .2307653449471585, .01153044534570089
.33000947820757187, .57443716949081558, .33000947820757187, -.031421118412154024
.33000947820757187, .57443716949081558, .5, .03511872152436419
.33000947820757187, .57443716949081558, .66999052179242813, -.031421118412154024
.33000947820757187, .57443716949081558, .7692346550528415, .01153044534570089
.33000947820757187, .57443716949081558, .8872983346207417, .013383659117516747
.33000947820757187, .57443716949081558, .93056815579702623, -.016760054410906375
.33000947820757187, .57443716949081558, .95308992296933193, .0057077075976606721
.33000947820757187, .59171732124782495, .025446043828620812, .0038282630368901287
.33000947820757187, .59171732124782495, .033765242898423975, -.010130523116232344
.33000947820757187, .59171732124782495, .046910077030668074, .0070048165693864899
.33000947820757187, .59171732124782495, .12923440720030277, .0082695763310534423
.33000947820757187, .59171732124782495, .16939530676686765, -.021332054771971538
.33000947820757187, .59171732124782495, .2307653449471585, .014150804544205156
