.21132486540518713, .7692346550528415, .033765242898423975, -.020500203502854725
.21132486540518713, .7692346550528415, .046910077030668074, .014174999999999828
.21132486540518713, .7692346550528415, .12923440720030277, .016734377457502479
.21132486540518713, .7692346550528415, .16939530676686765, -.043167708018823504
.21132486540518713, .7692346550528415, .2307653449471585, .028635675527999435
.21132486540518713, .7692346550528415, .29707742431130146, .022844351178746818
.21132486540518713, .7692346550528415, .38069040695840151, -.055989256103164783
.21132486540518713, .7692346550528415, .5, .0590417226194241
.21132486540518713, .7692346550528415, .61930959304159849, -.055989256103164783
.21132486540518713, .7692346550528415, .70292257568869854, .022844351178746818
.21132486540518713, .7692346550528415, .7692346550528415, .028635675527999435
.21132486540518713, .7692346550528415, .83060469323313235, -.043167708018823504
.21132486540518713, .7692346550528415, .87076559279969723, .016734377457502479
.21132486540518713, .7692346550528415, .95308992296933193, .014174999999999828
.21132486540518713, .7692346550528415, .96623475710157603, -.020500203502854725
.21132486540518713, .7692346550528415, .97455395617137919, .0077469021508824072
.21132486540518713, .78867513459481287, .013046735741414128, .008333918038585535
.21132486540518713, .78867513459481287, .015919880246186957, -.020318597090392378
.21132486540518713, .78867513459481287, .019855071751231912, .012653567036296349
.21132486540518713, .78867513459481287, .067468316655507676, .018681418643822729
.21132486540518713, .78867513459481287, .081984446336682115, -.045162040173714814
.21132486540518713, .78867513459481287, .10166676129318652, .027797629306672102
.21132486540518713, .78867513459481287, .16029521585048778, .027385795314498008
.21132486540518713, .78867513459481287, .19331428364970482, -.065152674100734498
.21132486540518713, .78867513459481287, .2372337950418355, .039213330734736339
.21132486540518713, .78867513459481287, .28330230293537639, .033658339913749821
.21132486540518713, .78867513459481287, .33787328829809549, -.078086769260001465
.21132486540518713, .78867513459481287, .40828267875217505, .045335472922295728
.21132486540518713, .78867513459481287, .42556283050918442, .036940528089344435
.21132486540518713, .78867513459481287, .5, -.082559838750315723
.21132486540518713, .78867513459481287, .57443716949081558, .036940528089344435
.21132486540518713, .78867513459481287, .59171732124782495, .045335472922295728
.21132486540518713, .78867513459481287, .66212671170190451, -.078086769260001465
.21132486540518713, .78867513459481287, .71669769706462361, .033658339913749821
.21132486540518713, .78867513459481287, .7627662049581645, .039213330734736339
.21132486540518713, .78867513459481287, .80668571635029518, -.065152674100734498
.21132486540518713, .78867513459481287, .83970478414951222, .027385795314498008
.21132486540518713, .78867513459481287, .89833323870681348, .027797629306672102
.21132486540518713, .78867513459481287, .91801555366331788, -.045162040173714814
.21132486540518713, .78867513459481287, .93253168334449232, .018681418643822729
.21132486540518713, .78867513459481287, .98014492824876809, .012653567036296349
.21132486540518713, .78867513459481287, .98408011975381304, -.020318597090392378
.21132486540518713, .78867513459481287, .98695326425858587, .008333918038585535
.21132486540518713, .80668571635029518, .1127016653792583, .018097965027981763
.21132486540518713, .80668571635029518, .21132486540518713, -.065152674100734498
.21132486540518713, .80668571635029518, .5, .094109418145505469
.21132486540518713, .80668571635029518, .78867513459481287, -.065152674100734498
.21132486540518713, .80668571635029518, .8872983346207417, .018097965027981763
.21132486540518713, .83060469323313235, .033765242898423975, .0077259116715477083
.21132486540518713, .83060469323313235, .046910077030668074, -.021368528937566328
.21132486540518713, .83060469323313235, .069431844202973769, .015686582640525564
.21132486540518713, .83060469323313235, .16939530676686765, .016268614073521256
.21132486540518713, .83060469323313235, .2307653449471585, -.043167708018823504
.21132486540518713, .83060469323313235, .33000947820757187, .029408613990492306
.21132486540518713, .83060469323313235, .38069040695840151, .02110067088594891
.21132486540518713, .83060469323313235, .5, -.051308312611291824
.21132486540518713, .83060469323313235, .61930959304159849, .02110067088594891
.21132486540518713, .83060469323313235, .66999052179242813, .029408613990492306
.21132486540518713, .83060469323313235, .7692346550528415, -.043167708018823504
.21132486540518713, .83060469323313235, .83060469323313235, .016268614073521256
.21132486540518713, .83060469323313235, .93056815579702623, .015686582640525564
.21132486540518713, .83060469323313235, .95308992296933193, -.021368528937566328
.21132486540518713, .83060469323313235, .96623475710157603, .0077259116715477083
.21132486540518713, .83970478414951222, .21132486540518713, .027385795314498008
.21132486540518713, .83970478414951222, .5, -.10954318125799203
.21132486540518713, .83970478414951222, .78867513459481287, .027385795314498008
.21132486540518713, .86507600278702468, .5, .046572552731933954
.21132486540518713, .87076559279969723, .046910077030668074, .0082837158923719269
.21132486540518713, .87076559279969723, .069431844202973769, -.024324218910153298
.21132486540518713, .87076559279969723, .1127016653792583, .019423985520088834
.21132486540518713, .87076559279969723, .2307653449471585, .016734377457502479
.21132486540518713, .87076559279969723, .33000947820757187, -.045602128962166671
.21132486540518713, .87076559279969723, .5, .050968538004713453
.21132486540518713, .87076559279969723, .66999052179242813, -.045602128962166671
.21132486540518713, .87076559279969723, .7692346550528415, .016734377457502479
.21132486540518713, .87076559279969723, .8872983346207417, .019423985520088834
.21132486540518713, .87076559279969723, .93056815579702623, -.024324218910153298
.21132486540518713, .87076559279969723, .95308992296933193, .0082837158923719269
.21132486540518713, .8872983346207417, .015919880246186957, .005644054747331202
.21132486540518713, .8872983346207417, .019855071751231912, -.014059518929218131
.21132486540518713, .8872983346207417, .025446043828620812, .0089920115395044197
.21132486540518713, .8872983346207417, .081984446336682115, .012545011159365198
.21132486540518713, .8872983346207417, .10166676129318652, -.030886254785191154
.21132486540518713, .8872983346207417, .12923440720030277, .019423985520088834
.21132486540518713, .8872983346207417, .19331428364970482, .018097965027981763
.21132486540518713, .8872983346207417, .2372337950418355, -.043570367483040266
.21132486540518713, .8872983346207417, .29707742431130146, .026515975729522398
.21132486540518713, .8872983346207417, .33787328829809549, .021690769238889244
.21132486540518713, .8872983346207417, .40828267875217505, -.050372747691439575
.21132486540518713, .8872983346207417, .5, .051958231852412176
.21132486540518713, .8872983346207417, .59171732124782495, -.050372747691439575
.21132486540518713, .8872983346207417, .66212671170190451, .021690769238889244
.21132486540518713, .8872983346207417, .70292257568869854, .026515975729522398
.21132486540518713, .8872983346207417, .7627662049581645, -.043570367483040266
.21132486540518713, .8872983346207417, .80668571635029518, .018097965027981763
.21132486540518713, .8872983346207417, .87076559279969723, .019423985520088834
.21132486540518713, .8872983346207417, .89833323870681348, -.030886254785191154
.21132486540518713, .8872983346207417, .91801555366331788, .012545011159365198
.21132486540518713, .8872983346207417, .97455395617137919, .0089920115395044197
.21132486540518713, .8872983346207417, .98014492824876809, -.014059518929218131
.21132486540518713, .8872983346207417, .98408011975381304, .005644054747331202
.21132486540518713, .89833323870681348, .069431844202973769, .0096695400376606566
.21132486540518713, .89833323870681348, .1127016653792583, -.030886254785191154
.21132486540518713, .89833323870681348, .21132486540518713, .027797629306672102
.21132486540518713, .89833323870681348, .33000947820757187, .018128089269011445
.21132486540518713, .89833323870681348, .5, -.0494180076563061
.21132486540518713, .89833323870681348, .66999052179242813, .018128089269011445
.21132486540518713, .89833323870681348, .78867513459481287, .027797629306672102
.21132486540518713, .89833323870681348, .8872983346207417, -.030886254785191154
.21132486540518713, .89833323870681348, .93056815579702623, .0096695400376606566
.21132486540518713, .91801555366331788, .1127016653792583, .012545011159365198
.21132486540518713, .91801555366331788, .21132486540518713, -.045162040173714814
.21132486540518713, .91801555366331788, .5, .065234058028699235
.21132486540518713, .91801555366331788, .78867513459481287, -.045162040173714814
.21132486540518713, .91801555366331788, .8872983346207417, .012545011159365198
.21132486540518713, .93056815579702623, .019855071751231912, .004401604601847204
.21132486540518713, .93056815579702623, .025446043828620812, -.011260493213574519
.21132486540518713, .93056815579702623, .033765242898423975, .007449506845600801
.21132486540518713, .93056815579702623, .10166676129318652, .0096695400376606566
.21132486540518713, .93056815579702623, .12923440720030277, -.024324218910153298
.21132486540518713, .93056815579702623, .16939530676686765, .015686582640525564
.21132486540518713, .93056815579702623, .2372337950418355, .013640547090055305
.21132486540518713, .93056815579702623, .29707742431130146, -.033205358271821077
.21132486540518713, .93056815579702623, .38069040695840151, .020345766156055031
.21132486540518713, .93056815579702623, .40828267875217505, .015770163912618221
.21132486540518713, .93056815579702623, .5, -.036347281777627811
.21132486540518713, .93056815579702623, .59171732124782495, .015770163912618221
.21132486540518713, .93056815579702623, .61930959304159849, .020345766156055031
.21132486540518713, .93056815579702623, .70292257568869854, -.033205358271821077
.21132486540518713, .93056815579702623, .7627662049581645, .013640547090055305
.21132486540518713, .93056815579702623, .83060469323313235, .015686582640525564
.21132486540518713, .93056815579702623, .87076559279969723, -.024324218910153298
.21132486540518713, .93056815579702623, .89833323870681348, .0096695400376606566
.21132486540518713, .93056815579702623, .96623475710157603, .007449506845600801
.21132486540518713, .93056815579702623, .97455395617137919, -.011260493213574519
.21132486540518713, .93056815579702623, .98014492824876809, .004401604601847204
.21132486540518713, .93253168334449232, .21132486540518713, .018681418643822729
.21132486540518713, .93253168334449232, .5, -.074725674575290918
.21132486540518713, .93253168334449232, .78867513459481287, .018681418643822729
.21132486540518713, .94353129988404771, .5, .031395092366226444
.21132486540518713, .95308992296933193, .025446043828620812, .0038348087119992793
.21132486540518713, .95308992296933193, .033765242898423975, -.010147844578306817
.21132486540518713, .95308992296933193, .046910077030668074, .0070167936078032768
.21132486540518713, .95308992296933193, .12923440720030277, .0082837158923719269
.21132486540518713, .95308992296933193, .16939530676686765, -.021368528937566328
.21132486540518713, .95308992296933193, .2307653449471585, .014174999999999828
.21132486540518713, .95308992296933193, .29707742431130146, .011308225560878014
.21132486540518713, .95308992296933193, .38069040695840151, -.02771534774817298
.21132486540518713, .95308992296933193, .5, .029226354981987598
.21132486540518713, .95308992296933193, .61930959304159849, -.02771534774817298
.21132486540518713, .95308992296933193, .70292257568869854, .011308225560878014
.21132486540518713, .95308992296933193, .7692346550528415, .014174999999999828
.21132486540518713, .95308992296933193, .83060469323313235, -.021368528937566328
.21132486540518713, .95308992296933193, .87076559279969723, .0082837158923719269
.21132486540518713, .95308992296933193, .95308992296933193, .0070167936078032768
.21132486540518713, .95308992296933193, .96623475710157603, -.010147844578306817
.21132486540518713, .95308992296933193, .97455395617137919, .0038348087119992793
.21132486540518713, .96623475710157603, .033765242898423975, .0036690102111222793
.21132486540518713, .96623475710157603, .046910077030668074, -.010147844578306817
.21132486540518713, .96623475710157603, .069431844202973769, .007449506845600801
.21132486540518713, .96623475710157603, .16939530676686765, .0077259116715477083
.21132486540518713, .96623475710157603, .2307653449471585, -.020500203502854725
.21132486540518713, .96623475710157603, .33000947820757187, .013966054701794748
.21132486540518713, .96623475710157603, .38069040695840151, .010020639664725561
.21132486540518713, .96623475710157603, .5, -.024366150027259118
.21132486540518713, .96623475710157603, .61930959304159849, .010020639664725561
.21132486540518713, .96623475710157603, .66999052179242813, .013966054701794748
.21132486540518713, .96623475710157603, .7692346550528415, -.020500203502854725
.21132486540518713, .96623475710157603, .83060469323313235, .0077259116715477083
.21132486540518713, .96623475710157603, .93056815579702623, .007449506845600801
.21132486540518713, .96623475710157603, .95308992296933193, -.010147844578306817
.21132486540518713, .96623475710157603, .96623475710157603, .0036690102111222793
.21132486540518713, .97455395617137919, .046910077030668074, .0038348087119992793
.21132486540518713, .97455395617137919, .069431844202973769, -.011260493213574519
.21132486540518713, .97455395617137919, .1127016653792583, .0089920115395044197
.21132486540518713, .97455395617137919, .2307653449471585, .0077469021508824072
.21132486540518713, .97455395617137919, .33000947820757187, -.021110748328641467
.21132486540518713, .97455395617137919, .5, .023595038279659763
.21132486540518713, .97455395617137919, .66999052179242813, -.021110748328641467
.21132486540518713, .97455395617137919, .7692346550528415, .0077469021508824072
.21132486540518713, .97455395617137919, .8872983346207417, .0089920115395044197
.21132486540518713, .97455395617137919, .93056815579702623, -.011260493213574519
.21132486540518713, .97455395617137919, .95308992296933193, .0038348087119992793
.21132486540518713, .98014492824876809, .069431844202973769, .004401604601847204
.21132486540518713, .98014492824876809, .1127016653792583, -.014059518929218131
.21132486540518713, .98014492824876809, .21132486540518713, .012653567036296349
.21132486540518713, .98014492824876809, .33000947820757187, .0082519624344491432
.21132486540518713, .98014492824876809, .5, -.022495230286749126
.21132486540518713, .98014492824876809, .66999052179242813, .0082519624344491432
.21132486540518713, .98014492824876809, .78867513459481287, .012653567036296349
.21132486540518713, .98014492824876809, .8872983346207417, -.014059518929218131
.21132486540518713, .98014492824876809, .93056815579702623, .004401604601847204
.21132486540518713, .98408011975381304, .1127016653792583, .005644054747331202
.21132486540518713, .98408011975381304, .21132486540518713, -.020318597090392378
.21132486540518713, .98408011975381304, .5, .029349084686122351
.21132486540518713, .98408011975381304, .78867513459481287, -.020318597090392378
.21132486540518713, .98408011975381304, .8872983346207417, .005644054747331202
.21132486540518713, .98695326425858587, .21132486540518713, .008333918038585535
.21132486540518713, .98695326425858587, .5, -.03333567215434214
.21132486540518713, .98695326425858587, .78867513459481287, .008333918038585535
.21132486540518713, .98911432907302843, .5, .013917141779042517
.2307653449471585, .019855071751231912, .5, .012112719935314349
.2307653449471585, .025446043828620812, .21132486540518713, .0077469021508824072
.2307653449471585, .025446043828620812, .5, -.030987608603529629
.2307653449471585, .025446043828620812, .78867513459481287, .0077469021508824072
.2307653449471585, .033765242898423975, .1127016653792583, .0056945009730151883
.2307653449471585, .033765242898423975, .21132486540518713, -.020500203502854725
.2307653449471585, .033765242898423975, .5, .029611405059679075
.2307653449471585, .033765242898423975, .78867513459481287, -.020500203502854725
.2307653449471585, .033765242898423975, .8872983346207417, .0056945009730151883
.2307653449471585, .046910077030668074, .069431844202973769, .0049308424298232902
.2307653449471585, .046910077030668074, .1127016653792583, -.015749999999999771
.2307653449471585, .046910077030668074, .21132486540518713, .014174999999999828
.2307653449471585, .046910077030668074, .33000947820757187, .009244157570176539
.2307653449471585, .046910077030668074, .5, -.025199999999999768
.2307653449471585, .046910077030668074, .66999052179242813, .009244157570176539
.2307653449471585, .046910077030668074, .78867513459481287, .014174999999999828
.2307653449471585, .046910077030668074, .8872983346207417, -.015749999999999771
.2307653449471585, .046910077030668074, .93056815579702623, .0049308424298232902
.2307653449471585, .069431844202973769, .046910077030668074, .0049308424298232902
.2307653449471585, .069431844202973769, .069431844202973769, -.014478875450682684
.2307653449471585, .069431844202973769, .1127016653792583, .011562034864923756
.2307653449471585, .069431844202973769, .2307653449471585, .0099610584761985008
.2307653449471585, .069431844202973769, .33000947820757187, -.027144450063042936
.2307653449471585, .069431844202973769, .5, .030338779485560147
.2307653449471585, .069431844202973769, .66999052179242813, -.027144450063042936
.2307653449471585, .069431844202973769, .7692346550528415, .0099610584761985008
.2307653449471585, .069431844202973769, .8872983346207417, .011562034864923756
.2307653449471585, .069431844202973769, .93056815579702623, -.014478875450682684
.2307653449471585, .069431844202973769, .95308992296933193, .0049308424298232902
.2307653449471585, .10166676129318652, .5, .026609484716173585
.2307653449471585, .1127016653792583, .033765242898423975, .0056945009730151892
.2307653449471585, .1127016653792583, .046910077030668074, -.015749999999999775
.2307653449471585, .1127016653792583, .069431844202973769, .011562034864923758
.2307653449471585, .1127016653792583, .16939530676686765, .011991030005228723
.2307653449471585, .1127016653792583, .2307653449471585, -.031817417253332633
.2307653449471585, .1127016653792583, .33000947820757187, .021676067253088113
.2307653449471585, .1127016653792583, .38069040695840151, .015552571139767959
.2307653449471585, .1127016653792583, .5, -.037817573965382677
.2307653449471585, .1127016653792583, .61930959304159849, .015552571139767959
.2307653449471585, .1127016653792583, .66999052179242813, .021676067253088113
.2307653449471585, .1127016653792583, .7692346550528415, -.031817417253332633
.2307653449471585, .1127016653792583, .83060469323313235, .011991030005228723
.2307653449471585, .1127016653792583, .93056815579702623, .011562034864923758
.2307653449471585, .1127016653792583, .95308992296933193, -.015749999999999775
.2307653449471585, .1127016653792583, .96623475710157603, .0056945009730151892
.2307653449471585, .12923440720030277, .21132486540518713, .016734377457502479
.2307653449471585, .12923440720030277, .5, -.066937509830009914
.2307653449471585, .12923440720030277, .78867513459481287, .016734377457502479
.2307653449471585, .16939530676686765, .1127016653792583, .011991030005228723
.2307653449471585, .16939530676686765, .21132486540518713, -.043167708018823504
.2307653449471585, .16939530676686765, .5, .062353356027189562
.2307653449471585, .16939530676686765, .78867513459481287, -.043167708018823504
.2307653449471585, .16939530676686765, .8872983346207417, .011991030005228723
.2307653449471585, .21132486540518713, .025446043828620812, .0077469021508824072
.2307653449471585, .21132486540518713, .033765242898423975, -.020500203502854725
.2307653449471585, .21132486540518713, .046910077030668074, .014174999999999828
.2307653449471585, .21132486540518713, .12923440720030277, .016734377457502479
.2307653449471585, .21132486540518713, .16939530676686765, -.043167708018823504
.2307653449471585, .21132486540518713, .2307653449471585, .028635675527999435
.2307653449471585, .21132486540518713, .29707742431130146, .022844351178746818
.2307653449471585, .21132486540518713, .38069040695840151, -.055989256103164783
.2307653449471585, .21132486540518713, .5, .0590417226194241
.2307653449471585, .21132486540518713, .61930959304159849, -.055989256103164783
.2307653449471585, .21132486540518713, .70292257568869854, .022844351178746818
.2307653449471585, .21132486540518713, .7692346550528415, .028635675527999435
.2307653449471585, .21132486540518713, .83060469323313235, -.043167708018823504
.2307653449471585, .21132486540518713, .87076559279969723, .016734377457502479
.2307653449471585, .21132486540518713, .95308992296933193, .014174999999999828
.2307653449471585, .21132486540518713, .96623475710157603, -.020500203502854725
.2307653449471585, .21132486540518713, .97455395617137919, .0077469021508824072
.2307653449471585, .2307653449471585, .069431844202973769, .0099610584761985008
.2307653449471585, .2307653449471585, .1127016653792583, -.031817417253332626
.2307653449471585, .2307653449471585, .21132486540518713, .028635675527999435
.2307653449471585, .2307653449471585, .33000947820757187, .018674617051800936
.2307653449471585, .2307653449471585, .5, -.050907867605332474
.2307653449471585, .2307653449471585, .66999052179242813, .018674617051800936
.2307653449471585, .2307653449471585, .78867513459481287, .028635675527999435
.2307653449471585, .2307653449471585, .8872983346207417, -.031817417253332626
.2307653449471585, .2307653449471585, .93056815579702623, .0099610584761985008
.2307653449471585, .2372337950418355, .5, .037537248710837877
.2307653449471585, .29707742431130146, .21132486540518713, .022844351178746818
.2307653449471585, .29707742431130146, .5, -.091377404714987273
.2307653449471585, .29707742431130146, .78867513459481287, .022844351178746818
.2307653449471585, .33000947820757187, .046910077030668074, .0092441575701765373
.2307653449471585, .33000947820757187, .069431844202973769, -.027144450063042936
.2307653449471585, .33000947820757187, .1127016653792583, .02167606725308811
.2307653449471585, .33000947820757187, .2307653449471585, .018674617051800933
.2307653449471585, .33000947820757187, .33000947820757187, -.050889392048074446
.2307653449471585, .33000947820757187, .5, .056878000472103604
.2307653449471585, .33000947820757187, .66999052179242813, -.050889392048074446
.2307653449471585, .33000947820757187, .7692346550528415, .018674617051800933
.2307653449471585, .33000947820757187, .8872983346207417, .02167606725308811
.2307653449471585, .33000947820757187, .93056815579702623, -.027144450063042936
.2307653449471585, .33000947820757187, .95308992296933193, .0092441575701765373
.2307653449471585, .38069040695840151, .1127016653792583, .015552571139767959
.2307653449471585, .38069040695840151, .21132486540518713, -.055989256103164783
.2307653449471585, .38069040695840151, .5, .080873369926793656
.2307653449471585, .38069040695840151, .78867513459481287, -.055989256103164783
.2307653449471585, .38069040695840151, .8872983346207417, .015552571139767959
.2307653449471585, .40828267875217505, .5, .043397714262517179
.2307653449471585, .5, .019855071751231912, .012112719935314349
.2307653449471585, .5, .025446043828620812, -.030987608603529629
.2307653449471585, .5, .033765242898423975, .029611405059679075
.2307653449471585, .5, .046910077030668074, -.025199999999999771
.2307653449471585, .5, .069431844202973769, .030338779485560154
.2307653449471585, .5, .10166676129318652, .026609484716173585
.2307653449471585, .5, .1127016653792583, -.037817573965382677
.2307653449471585, .5, .12923440720030277, -.066937509830009914
.2307653449471585, .5, .16939530676686765, .062353356027189569
.2307653449471585, .5, .21132486540518713, .0590417226194241
.2307653449471585, .5, .2307653449471585, -.050907867605332474
.2307653449471585, .5, .2372337950418355, .037537248710837877
.2307653449471585, .5, .29707742431130146, -.091377404714987273
.2307653449471585, .5, .33000947820757187, .056878000472103604
.2307653449471585, .5, .38069040695840151, .080873369926793656
.2307653449471585, .5, .40828267875217505, .043397714262517179
.2307653449471585, .5, .5, -.32106348509386207
.2307653449471585, .5, .59171732124782495, .043397714262517179
.2307653449471585, .5, .61930959304159849, .080873369926793656
.2307653449471585, .5, .66999052179242813, .056878000472103604
.2307653449471585, .5, .70292257568869854, -.091377404714987273
.2307653449471585, .5, .7627662049581645, .037537248710837877
.2307653449471585, .5, .7692346550528415, -.050907867605332474
.2307653449471585, .5, .78867513459481287, .0590417226194241
.2307653449471585, .5, .83060469323313235, .062353356027189569
.2307653449471585, .5, .87076559279969723, -.066937509830009914
.2307653449471585, .5, .8872983346207417, -.037817573965382677
.2307653449471585, .5, .89833323870681348, .026609484716173585
.2307653449471585, .5, .93056815579702623, .030338779485560154
.2307653449471585, .5, .95308992296933193, -.025199999999999771
.2307653449471585, .5, .96623475710157603, .029611405059679075
.2307653449471585, .5, .97455395617137919, -.030987608603529629
.2307653449471585, .5, .98014492824876809, .012112719935314349
.2307653449471585, .59171732124782495, .5, .043397714262517179
.2307653449471585, .61930959304159849, .1127016653792583, .015552571139767959
.2307653449471585, .61930959304159849, .21132486540518713, -.055989256103164783
.2307653449471585, .61930959304159849, .5, .080873369926793656
.2307653449471585, .61930959304159849, .78867513459481287, -.055989256103164783
.2307653449471585, .61930959304159849, .8872983346207417, .015552571139767959
.2307653449471585, .66999052179242813, .046910077030668074, .0092441575701765373
.2307653449471585, .66999052179242813, .069431844202973769, -.027144450063042936
.2307653449471585, .66999052179242813, .1127016653792583, .02167606725308811
.2307653449471585, .66999052179242813, .2307653449471585, .018674617051800933
.2307653449471585, .66999052179242813, .33000947820757187, -.050889392048074446
.2307653449471585, .66999052179242813, .5, .056878000472103604
.2307653449471585, .66999052179242813, .66999052179242813, -.050889392048074446
.2307653449471585, .66999052179242813, .7692346550528415, .018674617051800933
.2307653449471585, .66999052179242813, .8872983346207417, .02167606725308811
.2307653449471585, .66999052179242813, .93056815579702623, -.027144450063042936
.2307653449471585, .66999052179242813, .95308992296933193, .0092441575701765373
.2307653449471585, .70292257568869854, .21132486540518713, .022844351178746818
.2307653449471585, .70292257568869854, .5, -.091377404714987273
.2307653449471585, .70292257568869854, .78867513459481287, .022844351178746818
.2307653449471585, .7627662049581645, .5, .037537248710837877
.2307653449471585, .7692346550528415, .069431844202973769, .0099610584761985008
.2307653449471585, .7692346550528415, .1127016653792583, -.031817417253332626
.2307653449471585, .7692346550528415, .21132486540518713, .028635675527999435
.2307653449471585, .7692346550528415, .33000947820757187, .018674617051800936
.2307653449471585, .7692346550528415, .5, -.050907867605332474
.2307653449471585, .7692346550528415, .66999052179242813, .018674617051800936
.2307653449471585, .7692346550528415, .78867513459481287, .028635675527999435
.2307653449471585, .7692346550528415, .8872983346207417, -.031817417253332626
.2307653449471585, .7692346550528415, .93056815579702623, .0099610584761985008
.2307653449471585, .78867513459481287, .025446043828620812, .0077469021508824072
.2307653449471585, .78867513459481287, .033765242898423975, -.020500203502854725
.2307653449471585, .78867513459481287, .046910077030668074, .014174999999999828
.2307653449471585, .78867513459481287, .12923440720030277, .016734377457502479
.2307653449471585, .78867513459481287, .16939530676686765, -.043167708018823504
.2307653449471585, .78867513459481287, .2307653449471585, .028635675527999435
.2307653449471585, .78867513459481287, .29707742431130146, .022844351178746818
.2307653449471585, .78867513459481287, .38069040695840151, -.055989256103164783
.2307653449471585, .78867513459481287, .5, .0590417226194241
.2307653449471585, .78867513459481287, .61930959304159849, -.055989256103164783
.2307653449471585, .78867513459481287, .70292257568869854, .022844351178746818
.2307653449471585, .78867513459481287, .7692346550528415, .028635675527999435
.2307653449471585, .78867513459481287, .83060469323313235, -.043167708018823504
.2307653449471585, .78867513459481287, .87076559279969723, .016734377457502479
.2307653449471585, .78867513459481287, .95308992296933193, .014174999999999828
.2307653449471585, .78867513459481287, .96623475710157603, -.020500203502854725
.2307653449471585, .78867513459481287, .97455395617137919, .0077469021508824072
.2307653449471585, .83060469323313235, .1127016653792583, .011991030005228723
.2307653449471585, .83060469323313235, .21132486540518713, -.043167708018823504
.2307653449471585, .83060469323313235, .5, .062353356027189562
.2307653449471585, .83060469323313235, .78867513459481287, -.043167708018823504
.2307653449471585, .83060469323313235, .8872983346207417, .011991030005228723
.2307653449471585, .87076559279969723, .21132486540518713, .016734377457502479
.2307653449471585, .87076559279969723, .5, -.066937509830009914
.2307653449471585, .87076559279969723, .78867513459481287, .016734377457502479
.2307653449471585, .8872983346207417, .033765242898423975, .0056945009730151892
.2307653449471585, .8872983346207417, .046910077030668074, -.015749999999999775
.2307653449471585, .8872983346207417, .069431844202973769, .011562034864923758
.2307653449471585, .8872983346207417, .16939530676686765, .011991030005228723
.2307653449471585, .8872983346207417, .2307653449471585, -.031817417253332633
.2307653449471585, .8872983346207417, .33000947820757187, .021676067253088113
.2307653449471585, .8872983346207417, .38069040695840151, .015552571139767959
.2307653449471585, .8872983346207417, .5, -.037817573965382677
.2307653449471585, .8872983346207417, .61930959304159849, .015552571139767959
.2307653449471585, .8872983346207417, .66999052179242813, .021676067253088113
.2307653449471585, .8872983346207417, .7692346550528415, -.031817417253332633
.2307653449471585, .8872983346207417, .83060469323313235, .011991030005228723
.2307653449471585, .8872983346207417, .93056815579702623, .011562034864923758
.2307653449471585, .8872983346207417, .95308992296933193, -.015749999999999775
.2307653449471585, .8872983346207417, .96623475710157603, .0056945009730151892
.2307653449471585, .89833323870681348, .5, .026609484716173585
.2307653449471585, .93056815579702623, .046910077030668074, .0049308424298232902
.2307653449471585, .93056815579702623, .069431844202973769, -.014478875450682684
.2307653449471585, .93056815579702623, .1127016653792583, .011562034864923756
.2307653449471585, .93056815579702623, .2307653449471585, .0099610584761985008
.2307653449471585, .93056815579702623, .33000947820757187, -.027144450063042936
.2307653449471585, .93056815579702623, .5, .030338779485560147
.2307653449471585, .93056815579702623, .66999052179242813, -.027144450063042936
.2307653449471585, .93056815579702623, .7692346550528415, .0099610584761985008
.2307653449471585, .93056815579702623, .8872983346207417, .011562034864923756
.2307653449471585, .93056815579702623, .93056815579702623, -.014478875450682684
.2307653449471585, .93056815579702623, .95308992296933193, .0049308424298232902
.2307653449471585, .95308992296933193, .069431844202973769, .0049308424298232902
.2307653449471585, .95308992296933193, .1127016653792583, -.015749999999999771
.2307653449471585, .95308992296933193, .21132486540518713, .014174999999999828
.2307653449471585, .95308992296933193, .33000947820757187, .009244157570176539
.2307653449471585, .95308992296933193, .5, -.025199999999999768
.2307653449471585, .95308992296933193, .66999052179242813, .009244157570176539
.2307653449471585, .95308992296933193, .78867513459481287, .014174999999999828
.2307653449471585, .95308992296933193, .8872983346207417, -.015749999999999771
.2307653449471585, .95308992296933193, .93056815579702623, .0049308424298232902
.2307653449471585, .96623475710157603, .1127016653792583, .0056945009730151883
.2307653449471585, .96623475710157603, .21132486540518713, -.020500203502854725
.2307653449471585, .96623475710157603, .5, .029611405059679075
.2307653449471585, .96623475710157603, .78867513459481287, -.020500203502854725
.2307653449471585, .96623475710157603, .8872983346207417, .0056945009730151883
.2307653449471585, .97455395617137919, .21132486540518713, .0077469021508824072
.2307653449471585, .97455395617137919, .5, -.030987608603529629
.2307653449471585, .97455395617137919, .78867513459481287, .0077469021508824072
.2307653449471585, .98014492824876809, .5, .012112719935314349
.2372337950418355, .046910077030668074, .5, .018581384607317966
.2372337950418355, .069431844202973769, .21132486540518713, .013640547090055305
.2372337950418355, .069431844202973769, .5, -.054562188360221218
.2372337950418355, .069431844202973769, .78867513459481287, .013640547090055305
.2372337950418355, .1127016653792583, .1127016653792583, .012102879856400045
.2372337950418355, .1127016653792583, .21132486540518713, -.043570367483040266
.2372337950418355, .1127016653792583, .5, .062934975253280442
.2372337950418355, .1127016653792583, .78867513459481287, -.043570367483040266
.2372337950418355, .1127016653792583, .8872983346207417, .012102879856400045
.2372337950418355, .21132486540518713, .069431844202973769, .013640547090055305
.2372337950418355, .21132486540518713, .1127016653792583, -.043570367483040266
.2372337950418355, .21132486540518713, .21132486540518713, .039213330734736339
.2372337950418355, .21132486540518713, .33000947820757187, .025572783644681032
.2372337950418355, .21132486540518713, .5, -.069712587972864795
.2372337950418355, .21132486540518713, .66999052179242813, .025572783644681032
.2372337950418355, .21132486540518713, .78867513459481287, .039213330734736339
.2372337950418355, .21132486540518713, .8872983346207417, -.043570367483040266
.2372337950418355, .21132486540518713, .93056815579702623, .013640547090055305
.2372337950418355, .2307653449471585, .5, .037537248710837877
.2372337950418355, .33000947820757187, .21132486540518713, .025572783644681032
.2372337950418355, .33000947820757187, .5, -.10229113457872413
.2372337950418355, .33000947820757187, .78867513459481287, .025572783644681032
.2372337950418355, .5, .046910077030668074, .018581384607317966
.2372337950418355, .5, .069431844202973769, -.054562188360221218
.2372337950418355, .5, .1127016653792583, .062934975253280442
.2372337950418355, .5, .21132486540518713, -.069712587972864795
.2372337950418355, .5, .2307653449471585, .037537248710837877
.2372337950418355, .5, .33000947820757187, -.10229113457872413
.2372337950418355, .5, .5, .2596406609833814
.2372337950418355, .5, .66999052179242813, -.10229113457872413
.2372337950418355, .5, .7692346550528415, .037537248710837877
.2372337950418355, .5, .78867513459481287, -.069712587972864795
.2372337950418355, .5, .8872983346207417, .062934975253280442
.2372337950418355, .5, .93056815579702623, -.054562188360221218
.2372337950418355, .5, .95308992296933193, .018581384607317966
.2372337950418355, .66999052179242813, .21132486540518713, .025572783644681032
.2372337950418355, .66999052179242813, .5, -.10229113457872413
.2372337950418355, .66999052179242813, .78867513459481287, .025572783644681032
.2372337950418355, .7692346550528415, .5, .037537248710837877
.2372337950418355, .78867513459481287, .069431844202973769, .013640547090055305
.2372337950418355, .78867513459481287, .1127016653792583, -.043570367483040266
.2372337950418355, .78867513459481287, .21132486540518713, .039213330734736339
.2372337950418355, .78867513459481287, .33000947820757187, .025572783644681032
.2372337950418355, .78867513459481287, .5, -.069712587972864795
.2372337950418355, .78867513459481287, .66999052179242813, .025572783644681032
.2372337950418355, .78867513459481287, .78867513459481287, .039213330734736339
.2372337950418355, .78867513459481287, .8872983346207417, -.043570367483040266
.2372337950418355, .78867513459481287, .93056815579702623, .013640547090055305
.2372337950418355, .8872983346207417, .1127016653792583, .012102879856400045
.2372337950418355, .8872983346207417, .21132486540518713, -.043570367483040266
.2372337950418355, .8872983346207417, .5, .062934975253280442
.2372337950418355, .8872983346207417, .78867513459481287, -.043570367483040266
.2372337950418355, .8872983346207417, .8872983346207417, .012102879856400045
.2372337950418355, .93056815579702623, .21132486540518713, .013640547090055305
.2372337950418355, .93056815579702623, .5, -.054562188360221218
.2372337950418355, .93056815579702623, .78867513459481287, .013640547090055305
.2372337950418355, .95308992296933193, .5, .018581384607317966
.24045193539659415, .21132486540518713, .5, .058298441147998058
.24045193539659415, .5, .21132486540518713, .058298441147998058
.24045193539659415, .5, .5, -.23319376459199223
.24045193539659415, .5, .78867513459481287, .058298441147998058
.24045193539659415, .78867513459481287, .5, .058298441147998058
.28330230293537639, .1127016653792583, .5, .037398155459721943
.28330230293537639, .21132486540518713, .21132486540518713, .033658339913749821
.28330230293537639, .21132486540518713, .5, -.13463335965499929
.28330230293537639, .21132486540518713, .78867513459481287, .033658339913749821
.28330230293537639, .5, .1127016653792583, .037398155459721943
.28330230293537639, .5, .21132486540518713, -.13463335965499929
.28330230293537639, .5, .5, .25430745712611014
.28330230293537639, .5, .78867513459481287, -.13463335965499929
.28330230293537639, .5, .8872983346207417, .037398155459721943
.28330230293537639, .78867513459481287, .21132486540518713, .033658339913749821
.28330230293537639, .78867513459481287, .5, -.13463335965499929
.28330230293537639, .78867513459481287, .78867513459481287, .033658339913749821
.28330230293537639, .8872983346207417, .5, .037398155459721943
.29707742431130146, .033765242898423975, .5, .016354209894475176
.29707742431130146, .046910077030668074, .21132486540518713, .011308225560878014
.29707742431130146, .046910077030668074, .5, -.045232902243512056
.29707742431130146, .046910077030668074, .78867513459481287, .011308225560878014
.29707742431130146, .069431844202973769, .1127016653792583, .0092237106310613885
.29707742431130146, .069431844202973769, .21132486540518713, -.033205358271821077
.29707742431130146, .069431844202973769, .5, .047963295281519373
.29707742431130146, .069431844202973769, .78867513459481287, -.033205358271821077
.29707742431130146, .069431844202973769, .8872983346207417, .0092237106310613885
.29707742431130146, .1127016653792583, .069431844202973769, .0092237106310613885
.29707742431130146, .1127016653792583, .1127016653792583, -.029462195255024817
.29707742431130146, .1127016653792583, .21132486540518713, .026515975729522398
.29707742431130146, .1127016653792583, .33000947820757187, .017292265098461011
.29707742431130146, .1127016653792583, .5, -.047139512408039957
.29707742431130146, .1127016653792583, .66999052179242813, .017292265098461011
.29707742431130146, .1127016653792583, .78867513459481287, .026515975729522398
.29707742431130146, .1127016653792583, .8872983346207417, -.029462195255024817
.29707742431130146, .1127016653792583, .93056815579702623, .0092237106310613885
.29707742431130146, .16939530676686765, .5, .034437402414319904
.29707742431130146, .21132486540518713, .046910077030668074, .011308225560878014
.29707742431130146, .21132486540518713, .069431844202973769, -.033205358271821077
.29707742431130146, .21132486540518713, .1127016653792583, .026515975729522398
.29707742431130146, .21132486540518713, .2307653449471585, .022844351178746818
.29707742431130146, .21132486540518713, .33000947820757187, -.062252154354459778
.29707742431130146, .21132486540518713, .5, .069577920314267253
.29707742431130146, .21132486540518713, .66999052179242813, -.062252154354459778
.29707742431130146, .21132486540518713, .7692346550528415, .022844351178746818
.29707742431130146, .21132486540518713, .8872983346207417, .026515975729522398
.29707742431130146, .21132486540518713, .93056815579702623, -.033205358271821077
.29707742431130146, .21132486540518713, .95308992296933193, .011308225560878014
.29707742431130146, .2307653449471585, .21132486540518713, .022844351178746818
.29707742431130146, .2307653449471585, .5, -.091377404714987273
.29707742431130146, .2307653449471585, .78867513459481287, .022844351178746818
.29707742431130146, .33000947820757187, .1127016653792583, .017292265098461008
.29707742431130146, .33000947820757187, .21132486540518713, -.062252154354459778
.29707742431130146, .33000947820757187, .5, .089919778511997533
.29707742431130146, .33000947820757187, .78867513459481287, -.062252154354459778
.29707742431130146, .33000947820757187, .8872983346207417, .017292265098461008
.29707742431130146, .38069040695840151, .5, .044665900317485775
.29707742431130146, .5, .033765242898423975, .016354209894475176
.29707742431130146, .5, .046910077030668074, -.045232902243512056
.29707742431130146, .5, .069431844202973769, .047963295281519373
.29707742431130146, .5, .1127016653792583, -.047139512408039957
.29707742431130146, .5, .16939530676686765, .034437402414319904
.29707742431130146, .5, .21132486540518713, .069577920314267253
.29707742431130146, .5, .2307653449471585, -.091377404714987273
.29707742431130146, .5, .33000947820757187, .089919778511997533
.29707742431130146, .5, .38069040695840151, .044665900317485775
.29707742431130146, .5, .5, -.29264209302911393
.29707742431130146, .5, .61930959304159849, .044665900317485775
.29707742431130146, .5, .66999052179242813, .089919778511997533
.29707742431130146, .5, .7692346550528415, -.091377404714987273
.29707742431130146, .5, .78867513459481287, .069577920314267253
.29707742431130146, .5, .83060469323313235, .034437402414319904
.29707742431130146, .5, .8872983346207417, -.047139512408039957
.29707742431130146, .5, .93056815579702623, .047963295281519373
.29707742431130146, .5, .95308992296933193, -.045232902243512056
.29707742431130146, .5, .96623475710157603, .016354209894475176
.29707742431130146, .61930959304159849, .5, .044665900317485775
.29707742431130146, .66999052179242813, .1127016653792583, .017292265098461008
.29707742431130146, .66999052179242813, .21132486540518713, -.062252154354459778
.29707742431130146, .66999052179242813, .5, .089919778511997533
.29707742431130146, .66999052179242813, .78867513459481287, -.062252154354459778
.29707742431130146, .66999052179242813, .8872983346207417, .017292265098461008
.29707742431130146, .7692346550528415, .21132486540518713, .022844351178746818
.29707742431130146, .7692346550528415, .5, -.091377404714987273
.29707742431130146, .7692346550528415, .78867513459481287, .022844351178746818
.29707742431130146, .78867513459481287, .046910077030668074, .011308225560878014
.29707742431130146, .78867513459481287, .069431844202973769, -.033205358271821077
.29707742431130146, .78867513459481287, .1127016653792583, .026515975729522398
.29707742431130146, .78867513459481287, .2307653449471585, .022844351178746818
.29707742431130146, .78867513459481287, .33000947820757187, -.062252154354459778
.29707742431130146, .78867513459481287, .5, .069577920314267253
.29707742431130146, .78867513459481287, .66999052179242813, -.062252154354459778
.29707742431130146, .78867513459481287, .7692346550528415, .022844351178746818
.29707742431130146, .78867513459481287, .8872983346207417, .026515975729522398
.29707742431130146, .78867513459481287, .93056815579702623, -.033205358271821077
.29707742431130146, .78867513459481287, .95308992296933193, .011308225560878014
.29707742431130146, .83060469323313235, .5, .034437402414319904
.29707742431130146, .8872983346207417, .069431844202973769, .0092237106310613885
.29707742431130146, .8872983346207417, .1127016653792583, -.029462195255024817
.29707742431130146, .8872983346207417, .21132486540518713, .026515975729522398
.29707742431130146, .8872983346207417, .33000947820757187, .017292265098461011
.29707742431130146, .8872983346207417, .5, -.047139512408039957
.29707742431130146, .8872983346207417, .66999052179242813, .017292265098461011
.29707742431130146, .8872983346207417, .78867513459481287, .026515975729522398
.29707742431130146, .8872983346207417, .8872983346207417, -.029462195255024817
.29707742431130146, .8872983346207417, .93056815579702623, .0092237106310613885
.29707742431130146, .93056815579702623, .1127016653792583, .0092237106310613885
.29707742431130146, .93056815579702623, .21132486540518713, -.033205358271821077
.29707742431130146, .93056815579702623, .5, .047963295281519373
.29707742431130146, .93056815579702623, .78867513459481287, -.033205358271821077
.29707742431130146, .93056815579702623, .8872983346207417, .0092237106310613885
.29707742431130146, .95308992296933193, .21132486540518713, .011308225560878014
.29707742431130146, .95308992296933193, .5, -.045232902243512056
.29707742431130146, .95308992296933193, .78867513459481287, .011308225560878014
.29707742431130146, .96623475710157603, .5, .016354209894475176
.31608425050090994, .5, .5, .11674626826917829
.33000947820757187, .015919880246186957, .5, .013250674646103701
.33000947820757187, .019855071751231912, .21132486540518713, .0082519624344491432
.33000947820757187, .019855071751231912, .5, -.033007849737796573
.33000947820757187, .019855071751231912, .78867513459481287, .0082519624344491432
.33000947820757187, .025446043828620812, .1127016653792583, .0058640967579559489
.33000947820757187, .025446043828620812, .21132486540518713, -.021110748328641467
.33000947820757187, .025446043828620812, .5, .030493303141371032
.33000947820757187, .025446043828620812, .78867513459481287, -.021110748328641467
.33000947820757187, .025446043828620812, .8872983346207417, .0058640967579559489
.33000947820757187, .033765242898423975, .069431844202973769, .0048581597954739635
.33000947820757187, .033765242898423975, .1127016653792583, -.015517838557549684
.33000947820757187, .033765242898423975, .21132486540518713, .013966054701794748
.33000947820757187, .033765242898423975, .33000947820757187, .0091078949063207841
.33000947820757187, .033765242898423975, .5, -.024828541692079622
.33000947820757187, .033765242898423975, .66999052179242813, .0091078949063207841
.33000947820757187, .033765242898423975, .78867513459481287, .013966054701794748
.33000947820757187, .033765242898423975, .8872983346207417, -.015517838557549684
.33000947820757187, .033765242898423975, .93056815579702623, .0048581597954739635
.33000947820757187, .046910077030668074, .046910077030668074, .0045759679539994205
.33000947820757187, .046910077030668074, .069431844202973769, -.013436825657121499
.33000947820757187, .046910077030668074, .1127016653792583, .010729911121254633
