.5, .38069040695840151, .21132486540518713, -.048892231530861779
.5, .38069040695840151, .2307653449471585, .040809946670751433
.5, .38069040695840151, .2372337950418355, -.073393855487163512
.5, .38069040695840151, .29707742431130146, .064517411569701782
.5, .38069040695840151, .33000947820757187, -.04339879897945019
.5, .38069040695840151, .33787328829809549, .036537887442517472
.5, .38069040695840151, .38069040695840151, -.048654100037178204
.5, .38069040695840151, .40828267875217505, -.084852398043141125
.5, .38069040695840151, .5, .29658872697536137
.5, .38069040695840151, .59171732124782495, -.084852398043141125
.5, .38069040695840151, .61930959304159849, -.048654100037178204
.5, .38069040695840151, .66212671170190451, .036537887442517472
.5, .38069040695840151, .66999052179242813, -.04339879897945019
.5, .38069040695840151, .70292257568869854, .064517411569701782
.5, .38069040695840151, .7627662049581645, -.073393855487163512
.5, .38069040695840151, .7692346550528415, .040809946670751433
.5, .38069040695840151, .78867513459481287, -.048892231530861779
.5, .38069040695840151, .80668571635029518, .03048584408640722
.5, .38069040695840151, .83060469323313235, -.037512303797242637
.5, .38069040695840151, .87076559279969723, .047261518146896858
.5, .38069040695840151, .8872983346207417, .032066664198481809
.5, .38069040695840151, .89833323870681348, -.052027592402712826
.5, .38069040695840151, .91801555366331788, .021131947911013031
.5, .38069040695840151, .93056815579702623, -.023148960604222803
.5, .38069040695840151, .95308992296933193, .020201409025335081
.5, .38069040695840151, .96623475710157603, -.01781447051506773
.5, .38069040695840151, .97455395617137919, .021878934995697551
.5, .38069040695840151, .98014492824876809, -.023683121353331133
.5, .38069040695840151, .98408011975381304, .0095073547095628156
.5, .38477084202243261, .21132486540518713, .056570795065724801
.5, .38477084202243261, .5, -.2262831802628992
.5, .38477084202243261, .78867513459481287, .056570795065724801
.5, .40828267875217505, .025446043828620812, .011740524355185779
.5, .40828267875217505, .033765242898423975, -.031068307540726564
.5, .40828267875217505, .046910077030668074, .031030111325860098
.5, .40828267875217505, .069431844202973769, -.028035846955765831
.5, .40828267875217505, .1127016653792583, .036716136095093929
.5, .40828267875217505, .12923440720030277, .025361152404164661
.5, .40828267875217505, .16939530676686765, -.06542118610531536
.5, .40828267875217505, .21132486540518713, -.051581693636034667
.5, .40828267875217505, .2307653449471585, .062685587268080475
.5, .40828267875217505, .29707742431130146, .034620891831187543
.5, .40828267875217505, .33000947820757187, -.052560549350537972
.5, .40828267875217505, .38069040695840151, -.084852398043141125
.5, .40828267875217505, .5, .26062791121200513
.5, .40828267875217505, .61930959304159849, -.084852398043141125
.5, .40828267875217505, .66999052179242813, -.052560549350537972
.5, .40828267875217505, .70292257568869854, .034620891831187543
.5, .40828267875217505, .7692346550528415, .062685587268080475
.5, .40828267875217505, .78867513459481287, -.051581693636034667
.5, .40828267875217505, .83060469323313235, -.06542118610531536
.5, .40828267875217505, .87076559279969723, .025361152404164661
.5, .40828267875217505, .8872983346207417, .036716136095093929
.5, .40828267875217505, .93056815579702623, -.028035846955765831
.5, .40828267875217505, .95308992296933193, .031030111325860098
.5, .40828267875217505, .96623475710157603, -.031068307540726564
.5, .40828267875217505, .97455395617137919, .011740524355185779
.5, .42556283050918442, .046910077030668074, .017504408505077666
.5, .42556283050918442, .069431844202973769, -.051399766711258121
.5, .42556283050918442, .1127016653792583, .059287267303886095
.5, .42556283050918442, .21132486540518713, -.065672049936612575
.5, .42556283050918442, .2307653449471585, .035361591693895147
.5, .42556283050918442, .33000947820757187, -.096362345646119757
.5, .42556283050918442, .5, .24459190154169524
.5, .42556283050918442, .66999052179242813, -.096362345646119757
.5, .42556283050918442, .7692346550528415, .035361591693895147
.5, .42556283050918442, .78867513459481287, -.065672049936612575
.5, .42556283050918442, .8872983346207417, .059287267303886095
.5, .42556283050918442, .93056815579702623, -.051399766711258121
.5, .42556283050918442, .95308992296933193, .017504408505077666
.5, .43738329574426549, .1127016653792583, .034603756362972839
.5, .43738329574426549, .21132486540518713, -.12457352290670251
.5, .43738329574426549, .5, .23530554326821615
.5, .43738329574426549, .78867513459481287, -.12457352290670251
.5, .43738329574426549, .8872983346207417, .034603756362972839
.5, .44597252564632817, .5, .1076319267315797
.5, .5, .0068580956515937874, .01755973016587466
.5, .5, .0079084726407059325, -.040484004765312658
.5, .5, .0092196828766404337, .044554484365036208
.5, .5, .010885670926971569, -.049483170769929127
.5, .5, .013046735741414128, .055180826203138508
.5, .5, .015919880246186957, -.062290296660324367
.5, .5, .019855071751231912, .072743759653803572
.5, .5, .025446043828620812, -.08685834566086835
.5, .5, .033765242898423975, .10859457122352885
.5, .5, .035782558168213185, .040079043579880493
.5, .5, .041200800388510928, -.092121499837729215
.5, .5, .046910077030668074, -.14142346642891837
.5, .5, .047941371814762546, .1009982523289126
.5, .5, .056468700115952286, -.11162699507991665
.5, .5, .067468316655507676, .12369405490191433
.5, .5, .069431844202973769, .19749318567349905
.5, .5, .081984446336682115, -.138452318715271
.5, .5, .08639934246511749, .060759285343952016
.5, .5, .099210954633345061, -.13887351021978844
.5, .5, .10166676129318652, .1598050620374272
.5, .5, .1127016653792583, -.29921350069199232
.5, .5, .11504866290284765, .15118508806871747
.5, .5, .12923440720030277, -.18762601015395958
.5, .5, .13492399721297532, -.16559129860243244
.5, .5, .15635354759415732, .078601583579097384
.5, .5, .16029521585048778, .18132777460582289
.5, .5, .16939530676686765, .22866986380666107
.5, .5, .17882533027982994, -.17814598076194729
.5, .5, .19331428364970482, -.19973718558882117
.5, .5, .20634102285669131, .1918803474606752
.5, .5, .21132486540518713, .51502155635784819
.5, .5, .2307653449471585, -.28569710735121534
.5, .5, .2372337950418355, .22543248856313738
.5, .5, .24045193539659415, -.20728334630399384
.5, .5, .24237568182092295, .092769198738969619
.5, .5, .27575362448177665, -.20781604753689026
.5, .5, .28330230293537639, .22285976373509142
.5, .5, .29707742431130146, -.25613109762278907
.5, .5, .31608425050090994, .22052072895289282
.5, .5, .33000947820757187, .37025278203168704
.5, .5, .33787328829809549, -.23938896966226805
.5, .5, .34044381553605518, .10259923186064862
.5, .5, .36522842202382755, -.23360403956466649
.5, .5, .38069040695840151, .29658872697536137
.5, .5, .38477084202243261, -.2262831802628992
.5, .5, .40828267875217505, .26062791121200513
.5, .5, .42556283050918442, .2445919015416953
.5, .5, .43738329574426549, .23530554326821615
.5, .5, .44597252564632817, .1076319267315797
.5, .5, .5, -2.8098534129203911
.5, .5, .55402747435367183, .1076319267315797
.5, .5, .56261670425573451, .23530554326821615
.5, .5, .57443716949081558, .2445919015416953
.5, .5, .59171732124782495, .26062791121200513
.5, .5, .61522915797756739, -.2262831802628992
.5, .5, .61930959304159849, .29658872697536137
.5, .5, .63477157797617245, -.23360403956466649
.5, .5, .65955618446394482, .10259923186064862
.5, .5, .66212671170190451, -.23938896966226805
.5, .5, .66999052179242813, .37025278203168704
.5, .5, .68391574949909006, .22052072895289282
.5, .5, .70292257568869854, -.25613109762278907
.5, .5, .71669769706462361, .22285976373509142
.5, .5, .72424637551822335, -.20781604753689026
.5, .5, .75762431817907705, .092769198738969619
.5, .5, .75954806460340585, -.20728334630399384
.5, .5, .7627662049581645, .22543248856313738
.5, .5, .7692346550528415, -.28569710735121534
.5, .5, .78867513459481287, .51502155635784819
.5, .5, .79365897714330869, .1918803474606752
.5, .5, .80668571635029518, -.19973718558882117
.5, .5, .82117466972017006, -.17814598076194729
.5, .5, .83060469323313235, .22866986380666107
.5, .5, .83970478414951222, .18132777460582289
.5, .5, .84364645240584268, .078601583579097384
.5, .5, .86507600278702468, -.16559129860243244
.5, .5, .87076559279969723, -.18762601015395958
.5, .5, .88495133709715235, .15118508806871747
.5, .5, .8872983346207417, -.29921350069199232
.5, .5, .89833323870681348, .1598050620374272
.5, .5, .90078904536665494, -.13887351021978844
.5, .5, .91360065753488251, .060759285343952016
.5, .5, .91801555366331788, -.138452318715271
.5, .5, .93056815579702623, .19749318567349905
.5, .5, .93253168334449232, .12369405490191433
.5, .5, .94353129988404771, -.11162699507991665
.5, .5, .95205862818523745, .1009982523289126
.5, .5, .95308992296933193, -.14142346642891837
.5, .5, .95879919961148907, -.092121499837729215
.5, .5, .96421744183178681, .040079043579880493
.5, .5, .96623475710157603, .10859457122352885
.5, .5, .97455395617137919, -.08685834566086835
.5, .5, .98014492824876809, .072743759653803572
.5, .5, .98408011975381304, -.062290296660324367
.5, .5, .98695326425858587, .055180826203138508
.5, .5, .98911432907302843, -.049483170769929127
.5, .5, .99078031712335957, .044554484365036208
.5, .5, .99209152735929407, -.040484004765312658
.5, .5, .99314190434840621, .01755973016587466
.5, .55402747435367183, .5, .1076319267315797
.5, .56261670425573451, .1127016653792583, .034603756362972839
.5, .56261670425573451, .21132486540518713, -.12457352290670251
.5, .56261670425573451, .5, .23530554326821615
.5, .56261670425573451, .78867513459481287, -.12457352290670251
.5, .56261670425573451, .8872983346207417, .034603756362972839
.5, .57443716949081558, .046910077030668074, .017504408505077666
.5, .57443716949081558, .069431844202973769, -.051399766711258121
.5, .57443716949081558, .1127016653792583, .059287267303886095
.5, .57443716949081558, .21132486540518713, -.065672049936612575
.5, .57443716949081558, .2307653449471585, .035361591693895147
.5, .57443716949081558, .33000947820757187, -.096362345646119757
.5, .57443716949081558, .5, .24459190154169524
.5, .57443716949081558, .66999052179242813, -.096362345646119757
.5, .57443716949081558, .7692346550528415, .035361591693895147
.5, .57443716949081558, .78867513459481287, -.065672049936612575
.5, .57443716949081558, .8872983346207417, .059287267303886095
.5, .57443716949081558, .93056815579702623, -.051399766711258121
.5, .57443716949081558, .95308992296933193, .017504408505077666
.5, .59171732124782495, .025446043828620812, .011740524355185779
.5, .59171732124782495, .033765242898423975, -.031068307540726564
.5, .59171732124782495, .046910077030668074, .031030111325860098
.5, .59171732124782495, .069431844202973769, -.028035846955765831
.5, .59171732124782495, .1127016653792583, .036716136095093929
.5, .59171732124782495, .12923440720030277, .025361152404164661
.5, .59171732124782495, .16939530676686765, -.06542118610531536
.5, .59171732124782495, .21132486540518713, -.051581693636034667
.5, .59171732124782495, .2307653449471585, .062685587268080475
.5, .59171732124782495, .29707742431130146, .034620891831187543
.5, .59171732124782495, .33000947820757187, -.052560549350537972
.5, .59171732124782495, .38069040695840151, -.084852398043141125
.5, .59171732124782495, .5, .26062791121200513
.5, .59171732124782495, .61930959304159849, -.084852398043141125
.5, .59171732124782495, .66999052179242813, -.052560549350537972
.5, .59171732124782495, .70292257568869854, .034620891831187543
.5, .59171732124782495, .7692346550528415, .062685587268080475
.5, .59171732124782495, .78867513459481287, -.051581693636034667
.5, .59171732124782495, .83060469323313235, -.06542118610531536
.5, .59171732124782495, .87076559279969723, .025361152404164661
.5, .59171732124782495, .8872983346207417, .036716136095093929
.5, .59171732124782495, .93056815579702623, -.028035846955765831
.5, .59171732124782495, .95308992296933193, .031030111325860098
.5, .59171732124782495, .96623475710157603, -.031068307540726564
.5, .59171732124782495, .97455395617137919, .011740524355185779
.5, .61522915797756739, .21132486540518713, .056570795065724801
.5, .61522915797756739, .5, -.2262831802628992
.5, .61522915797756739, .78867513459481287, .056570795065724801
.5, .61930959304159849, .015919880246186957, .0095073547095628156
.5, .61930959304159849, .019855071751231912, -.023683121353331133
.5, .61930959304159849, .025446043828620812, .021878934995697551
.5, .61930959304159849, .033765242898423975, -.01781447051506773
.5, .61930959304159849, .046910077030668074, .020201409025335081
.5, .61930959304159849, .069431844202973769, -.023148960604222803
.5, .61930959304159849, .081984446336682115, .021131947911013031
.5, .61930959304159849, .10166676129318652, -.052027592402712826
.5, .61930959304159849, .1127016653792583, .032066664198481809
.5, .61930959304159849, .12923440720030277, .047261518146896858
.5, .61930959304159849, .16939530676686765, -.037512303797242637
.5, .61930959304159849, .19331428364970482, .03048584408640722
.5, .61930959304159849, .21132486540518713, -.048892231530861779
.5, .61930959304159849, .2307653449471585, .040809946670751433
.5, .61930959304159849, .2372337950418355, -.073393855487163512
.5, .61930959304159849, .29707742431130146, .064517411569701782
.5, .61930959304159849, .33000947820757187, -.04339879897945019
.5, .61930959304159849, .33787328829809549, .036537887442517472
.5, .61930959304159849, .38069040695840151, -.048654100037178204
.5, .61930959304159849, .40828267875217505, -.084852398043141125
.5, .61930959304159849, .5, .29658872697536137
.5, .61930959304159849, .59171732124782495, -.084852398043141125
.5, .61930959304159849, .61930959304159849, -.048654100037178204
.5, .61930959304159849, .66212671170190451, .036537887442517472
.5, .61930959304159849, .66999052179242813, -.04339879897945019
.5, .61930959304159849, .70292257568869854, .064517411569701782
.5, .61930959304159849, .7627662049581645, -.073393855487163512
.5, .61930959304159849, .7692346550528415, .040809946670751433
.5, .61930959304159849, .78867513459481287, -.048892231530861779
.5, .61930959304159849, .80668571635029518, .03048584408640722
.5, .61930959304159849, .83060469323313235, -.037512303797242637
.5, .61930959304159849, .87076559279969723, .047261518146896858
.5, .61930959304159849, .8872983346207417, .032066664198481809
.5, .61930959304159849, .89833323870681348, -.052027592402712826
.5, .61930959304159849, .91801555366331788, .021131947911013031
.5, .61930959304159849, .93056815579702623, -.023148960604222803
.5, .61930959304159849, .95308992296933193, .020201409025335081
.5, .61930959304159849, .96623475710157603, -.01781447051506773
.5, .61930959304159849, .97455395617137919, .021878934995697551
.5, .61930959304159849, .98014492824876809, -.023683121353331133
.5, .61930959304159849, .98408011975381304, .0095073547095628156
.5, .63477157797617245, .069431844202973769, .022854458533007674
.5, .63477157797617245, .1127016653792583, -.073001262363957903
.5, .63477157797617245, .21132486540518713, .094901641073145582
.5, .63477157797617245, .33000947820757187, .042846677594554593
.5, .63477157797617245, .5, -.23360403956466649
.5, .63477157797617245, .66999052179242813, .042846677594554593
.5, .63477157797617245, .78867513459481287, .094901641073145582
.5, .63477157797617245, .8872983346207417, -.073001262363957903
.5, .63477157797617245, .93056815579702623, .022854458533007674
.5, .65955618446394482, .5, .10259923186064862
.5, .66212671170190451, .033765242898423975, .013378176104998644
.5, .66212671170190451, .046910077030668074, -.037001710009746204
.5, .66212671170190451, .069431844202973769, .039235243707431228
.5, .66212671170190451, .1127016653792583, -.038561367535803241
.5, .66212671170190451, .16939530676686765, .028170705712485405
.5, .66212671170190451, .21132486540518713, .056916578482845821
.5, .66212671170190451, .2307653449471585, -.074749133109011212
.5, .66212671170190451, .33000947820757187, .073556756334793277
.5, .66212671170190451, .38069040695840151, .036537887442517472
.5, .66212671170190451, .5, -.23938896966226805
.5, .66212671170190451, .61930959304159849, .036537887442517472
.5, .66212671170190451, .66999052179242813, .073556756334793277
.5, .66212671170190451, .7692346550528415, -.074749133109011212
.5, .66212671170190451, .78867513459481287, .056916578482845821
.5, .66212671170190451, .83060469323313235, .028170705712485405
.5, .66212671170190451, .8872983346207417, -.038561367535803241
.5, .66212671170190451, .93056815579702623, .039235243707431228
.5, .66212671170190451, .95308992296933193, -.037001710009746204
.5, .66212671170190451, .96623475710157603, .013378176104998644
.5, .66999052179242813, .010885670926971569, .0090759965807377576
.5, .66999052179242813, .013046735741414128, -.021739697079540678
.5, .66999052179242813, .015919880246186957, .019139863377705381
.5, .66999052179242813, .019855071751231912, -.014670155439020753
.5, .66999052179242813, .025446043828620812, .015387389892876528
.5, .66999052179242813, .033765242898423975, -.015890266682931042
.5, .66999052179242813, .046910077030668074, .019059825795796185
.5, .66999052179242813, .056468700115952286, .020474157373096831
.5, .66999052179242813, .067468316655507676, -.048731986618111671
.5, .66999052179242813, .069431844202973769, -.023703703703703862
.5, .66999052179242813, .081984446336682115, .042542074875438693
.5, .66999052179242813, .10166676129318652, -.032227714256020459
.5, .66999052179242813, .1127016653792583, .033884309157775655
.5, .66999052179242813, .12923440720030277, .033238885110201663
.5, .66999052179242813, .13492399721297532, .030372064613711384
.5, .66999052179242813, .16029521585048778, -.071438054905629697
.5, .66999052179242813, .16939530676686765, -.033460467473627076
.5, .66999052179242813, .19331428364970482, .061373001070525214
.5, .66999052179242813, .21132486540518713, -.053840998827251872
.5, .66999052179242813, .2307653449471585, .038503773340996104
.5, .66999052179242813, .2372337950418355, -.045462726479433113
.5, .66999052179242813, .24045193539659415, .038019045930706499
.5, .66999052179242813, .28330230293537639, -.087800493181875022
.5, .66999052179242813, .29707742431130146, .045374903618362043
.5, .66999052179242813, .33000947820757187, -.04443881043703693
.5, .66999052179242813, .33787328829809549, .073556756334793277
.5, .66999052179242813, .36522842202382755, .042846677594554593
.5, .66999052179242813, .38069040695840151, -.04339879897945019
.5, .66999052179242813, .40828267875217505, -.052560549350537972
.5, .66999052179242813, .42556283050918442, -.096362345646119757
.5, .66999052179242813, .5, .3702527820316871
.5, .66999052179242813, .57443716949081558, -.096362345646119757
.5, .66999052179242813, .59171732124782495, -.052560549350537972
.5, .66999052179242813, .61930959304159849, -.04339879897945019
.5, .66999052179242813, .63477157797617245, .042846677594554593
.5, .66999052179242813, .66212671170190451, .073556756334793277
.5, .66999052179242813, .66999052179242813, -.04443881043703693
.5, .66999052179242813, .70292257568869854, .045374903618362043
.5, .66999052179242813, .71669769706462361, -.087800493181875022
.5, .66999052179242813, .75954806460340585, .038019045930706499
.5, .66999052179242813, .7627662049581645, -.045462726479433113
.5, .66999052179242813, .7692346550528415, .038503773340996104
.5, .66999052179242813, .78867513459481287, -.053840998827251872
.5, .66999052179242813, .80668571635029518, .061373001070525214
.5, .66999052179242813, .83060469323313235, -.033460467473627076
.5, .66999052179242813, .83970478414951222, -.071438054905629697
.5, .66999052179242813, .86507600278702468, .030372064613711384
.5, .66999052179242813, .87076559279969723, .033238885110201663
.5, .66999052179242813, .8872983346207417, .033884309157775655
.5, .66999052179242813, .89833323870681348, -.032227714256020459
.5, .66999052179242813, .91801555366331788, .042542074875438693
.5, .66999052179242813, .93056815579702623, -.023703703703703862
.5, .66999052179242813, .93253168334449232, -.048731986618111671
.5, .66999052179242813, .94353129988404771, .020474157373096831
.5, .66999052179242813, .95308992296933193, .019059825795796185
.5, .66999052179242813, .96623475710157603, -.015890266682931042
.5, .66999052179242813, .97455395617137919, .015387389892876528
.5, .66999052179242813, .98014492824876809, -.014670155439020753
.5, .66999052179242813, .98408011975381304, .019139863377705381
.5, .66999052179242813, .98695326425858587, -.021739697079540678
.5, .66999052179242813, .98911432907302843, .0090759965807377576
.5, .68391574949909006, .1127016653792583, .032429518963660586
.5, .68391574949909006, .21132486540518713, -.11674626826917839
.5, .68391574949909006, .5, .22052072895289282
.5, .68391574949909006, .78867513459481287, -.11674626826917839
.5, .68391574949909006, .8872983346207417, .032429518963660586
.5, .70292257568869854, .019855071751231912, .0096630242810779657
.5, .70292257568869854, .025446043828620812, -.024720625585955676
.5, .70292257568869854, .033765242898423975, .023622747625353071
.5, .70292257568869854, .046910077030668074, -.020103512108227653
.5, .70292257568869854, .069431844202973769, .024203016695905272
.5, .70292257568869854, .10166676129318652, .021227940404178542
.5, .70292257568869854, .1127016653792583, -.03016928794114573
.5, .70292257568869854, .12923440720030277, -.053399961879453339
.5, .70292257568869854, .16939530676686765, .049742914598462168
.5, .70292257568869854, .21132486540518713, .047101031173421501
.5, .70292257568869854, .2307653449471585, -.040612179873327818
.5, .70292257568869854, .2372337950418355, .029945656109836866
.5, .70292257568869854, .29707742431130146, -.072897093734372295
.5, .70292257568869854, .33000947820757187, .045374903618362043
.5, .70292257568869854, .38069040695840151, .064517411569701782
.5, .70292257568869854, .40828267875217505, .034620891831187543
.5, .70292257568869854, .5, -.25613109762278907
.5, .70292257568869854, .59171732124782495, .034620891831187543
.5, .70292257568869854, .61930959304159849, .064517411569701782
.5, .70292257568869854, .66999052179242813, .045374903618362043
.5, .70292257568869854, .70292257568869854, -.072897093734372295
.5, .70292257568869854, .7627662049581645, .029945656109836866
.5, .70292257568869854, .7692346550528415, -.040612179873327818
.5, .70292257568869854, .78867513459481287, .047101031173421501
.5, .70292257568869854, .83060469323313235, .049742914598462168
.5, .70292257568869854, .87076559279969723, -.053399961879453339
.5, .70292257568869854, .8872983346207417, -.03016928794114573
.5, .70292257568869854, .89833323870681348, .021227940404178542
.5, .70292257568869854, .93056815579702623, .024203016695905272
.5, .70292257568869854, .95308992296933193, -.020103512108227653
.5, .70292257568869854, .96623475710157603, .023622747625353071
.5, .70292257568869854, .97455395617137919, -.024720625585955676
.5, .70292257568869854, .98014492824876809, .0096630242810779657
.5, .71669769706462361, .046910077030668074, .015949131263853927
.5, .71669769706462361, .069431844202973769, -.046832866473124388
.5, .71669769706462361, .1127016653792583, .05401955788626512
.5, .71669769706462361, .21132486540518713, -.059837048735555461
.5, .71669769706462361, .2307653449471585, .032219692968267939
.5, .71669769706462361, .33000947820757187, -.087800493181875022
.5, .71669769706462361, .5, .22285976373509142
.5, .71669769706462361, .66999052179242813, -.087800493181875022
.5, .71669769706462361, .7692346550528415, .032219692968267939
.5, .71669769706462361, .78867513459481287, -.059837048735555461
.5, .71669769706462361, .8872983346207417, .05401955788626512
.5, .71669769706462361, .93056815579702623, -.046832866473124388
.5, .71669769706462361, .95308992296933193, .015949131263853927
.5, .72424637551822335, .21132486540518713, .051954011884222565
.5, .72424637551822335, .5, -.20781604753689026
.5, .72424637551822335, .78867513459481287, .051954011884222565
.5, .75762431817907705, .5, .092769198738969619
.5, .75954806460340585, .069431844202973769, .020279395217291604
.5, .75954806460340585, .1127016653792583, -.064776045719997732
.5, .75954806460340585, .21132486540518713, .084208859435997332
.5, .75954806460340585, .33000947820757187, .038019045930706499
.5, .75954806460340585, .5, -.20728334630399384
.5, .75954806460340585, .66999052179242813, .038019045930706499
.5, .75954806460340585, .78867513459481287, .084208859435997332
.5, .75954806460340585, .8872983346207417, -.064776045719997732
.5, .75954806460340585, .93056815579702623, .020279395217291604
.5, .7627662049581645, .025446043828620812, .01015507360711158
.5, .7627662049581645, .033765242898423975, -.026872815930499862
.5, .7627662049581645, .046910077030668074, .026839777766125995
.5, .7627662049581645, .069431844202973769, -.024249861493431741
.5, .7627662049581645, .1127016653792583, .031757956743193969
.5, .7627662049581645, .12923440720030277, .021936360049516001
.5, .7627662049581645, .16939530676686765, -.056586651521282096
.5, .7627662049581645, .21132486540518713, -.044616056302633711
.5, .7627662049581645, .2307653449471585, .054220470360099242
.5, .7627662049581645, .29707742431130146, .029945656109836866
.5, .7627662049581645, .33000947820757187, -.045462726479433113
.5, .7627662049581645, .38069040695840151, -.073393855487163512
.5, .7627662049581645, .5, .22543248856313738
.5, .7627662049581645, .61930959304159849, -.073393855487163512
.5, .7627662049581645, .66999052179242813, -.045462726479433113
.5, .7627662049581645, .70292257568869854, .029945656109836866
.5, .7627662049581645, .7692346550528415, .054220470360099242
.5, .7627662049581645, .78867513459481287, -.044616056302633711
.5, .7627662049581645, .83060469323313235, -.056586651521282096
.5, .7627662049581645, .87076559279969723, .021936360049516001
.5, .7627662049581645, .8872983346207417, .031757956743193969
.5, .7627662049581645, .93056815579702623, -.024249861493431741
.5, .7627662049581645, .95308992296933193, .026839777766125995
.5, .7627662049581645, .96623475710157603, -.026872815930499862
.5, .7627662049581645, .97455395617137919, .01015507360711158
.5, .7692346550528415, .013046735741414128, .0079777042217178303
.5, .7692346550528415, .015919880246186957, -.019450126223573758
.5, .7692346550528415, .019855071751231912, .017496151017676313
.5, .7692346550528415, .025446043828620812, -.013772270490457664
.5, .7692346550528415, .033765242898423975, .01494237055319197
.5, .7692346550528415, .046910077030668074, -.016127999999999938
.5, .7692346550528415, .067468316655507676, .017882925137070047
.5, .7692346550528415, .069431844202973769, .020537949278428051
.5, .7692346550528415, .081984446336682115, -.043231694490768552
.5, .7692346550528415, .10166676129318652, .038435922367806359
.5, .7692346550528415, .1127016653792583, -.027784340056199529
.5, .7692346550528415, .12923440720030277, -.029750004368893405
.5, .7692346550528415, .16029521585048778, .026215253603892139
.5, .7692346550528415, .16939530676686765, .031464462733720416
.5, .7692346550528415, .19331428364970482, -.062367875568626628
.5, .7692346550528415, .21132486540518713, .044763658979432644
.5, .7692346550528415, .2307653449471585, -.032581035267412954
.5, .7692346550528415, .2372337950418355, .054220470360099242
.5, .7692346550528415, .28330230293537639, .032219692968267939
.5, .7692346550528415, .29707742431130146, -.040612179873327818
.5, .7692346550528415, .33000947820757187, .038503773340996097
.5, .7692346550528415, .33787328829809549, -.074749133109011212
.5, .7692346550528415, .38069040695840151, .040809946670751433
.5, .7692346550528415, .40828267875217505, .062685587268080489
.5, .7692346550528415, .42556283050918442, .035361591693895147
.5, .7692346550528415, .5, -.28569710735121534
.5, .7692346550528415, .57443716949081558, .035361591693895147
.5, .7692346550528415, .59171732124782495, .062685587268080489
.5, .7692346550528415, .61930959304159849, .040809946670751433
.5, .7692346550528415, .66212671170190451, -.074749133109011212
.5, .7692346550528415, .66999052179242813, .038503773340996097
.5, .7692346550528415, .70292257568869854, -.040612179873327818
.5, .7692346550528415, .71669769706462361, .032219692968267939
.5, .7692346550528415, .7627662049581645, .054220470360099242
.5, .7692346550528415, .7692346550528415, -.032581035267412954
.5, .7692346550528415, .78867513459481287, .044763658979432644
.5, .7692346550528415, .80668571635029518, -.062367875568626628
.5, .7692346550528415, .83060469323313235, .031464462733720416
.5, .7692346550528415, .83970478414951222, .026215253603892139
.5, .7692346550528415, .87076559279969723, -.029750004368893405
.5, .7692346550528415, .8872983346207417, -.027784340056199529
.5, .7692346550528415, .89833323870681348, .038435922367806359
.5, .7692346550528415, .91801555366331788, -.043231694490768552
.5, .7692346550528415, .93056815579702623, .020537949278428051
.5, .7692346550528415, .93253168334449232, .017882925137070047
.5, .7692346550528415, .95308992296933193, -.016127999999999938
.5, .7692346550528415, .96623475710157603, .01494237055319197
.5, .7692346550528415, .97455395617137919, -.013772270490457664
.5, .7692346550528415, .98014492824876809, .017496151017676313
.5, .7692346550528415, .98408011975381304, -.019450126223573758
.5, .7692346550528415, .98695326425858587, .0079777042217178303
.5, .78867513459481287, .0079084726407059325, .010121001191328164
.5, .78867513459481287, .0092196828766404337, -.023587668193254432
.5, .78867513459481287, .010885670926971569, .020102538125283669
.5, .78867513459481287, .013046735741414128, -.014815854290818784
.5, .78867513459481287, .015919880246186957, .014809999656997192
.5, .78867513459481287, .019855071751231912, -.014396947383519518
.5, .78867513459481287, .025446043828620812, .015972748661193324
.5, .78867513459481287, .033765242898423975, -.017901661244516913
.5, .78867513459481287, .041200800388510928, .023030374959432304
.5, .78867513459481287, .046910077030668074, .022158543646474252
.5, .78867513459481287, .047941371814762546, -.053469662997659539
.5, .78867513459481287, .056468700115952286, .045348466751216052
.5, .78867513459481287, .067468316655507676, -.033211410922351636
.5, .78867513459481287, .069431844202973769, -.028718839923063916
.5, .78867513459481287, .081984446336682115, .032918109282174535
.5, .78867513459481287, .099210954633345061, .034718377554947111
.5, .78867513459481287, .10166676129318652, -.031627524900036071
.5, .78867513459481287, .1127016653792583, .04188641956799756
.5, .78867513459481287, .11504866290284765, -.080039164271673846
.5, .78867513459481287, .12923440720030277, .034503340809562237
.5, .78867513459481287, .13492399721297532, .06727146505723805
.5, .78867513459481287, .16029521585048778, -.048685858336885525
.5, .78867513459481287, .16939530676686765, -.037695903142989928
.5, .78867513459481287, .17882533027982994, .044536495190486823
.5, .78867513459481287, .19331428364970482, .047489060233424508
.5, .78867513459481287, .20634102285669131, -.1015837133615338
.5, .78867513459481287, .21132486540518713, -.068231271694475779
.5, .78867513459481287, .2307653449471585, .044763658979432644
.5, .78867513459481287, .2372337950418355, -.044616056302633711
.5, .78867513459481287, .24045193539659415, .084208859435997332
.5, .78867513459481287, .27575362448177665, .051954011884222565
.5, .78867513459481287, .28330230293537639, -.059837048735555461
.5, .78867513459481287, .29707742431130146, .047101031173421501
.5, .78867513459481287, .31608425050090994, -.11674626826917839
.5, .78867513459481287, .33000947820757187, -.053840998827251872
.5, .78867513459481287, .33787328829809549, .056916578482845821
.5, .78867513459481287, .36522842202382755, .094901641073145582
.5, .78867513459481287, .38069040695840151, -.048892231530861779
.5, .78867513459481287, .38477084202243261, .056570795065724801
.5, .78867513459481287, .40828267875217505, -.051581693636034667
.5, .78867513459481287, .42556283050918442, -.065672049936612575
.5, .78867513459481287, .43738329574426549, -.12457352290670251
.5, .78867513459481287, .5, .51502155635784819
.5, .78867513459481287, .56261670425573451, -.12457352290670251
.5, .78867513459481287, .57443716949081558, -.065672049936612575
.5, .78867513459481287, .59171732124782495, -.051581693636034667
.5, .78867513459481287, .61522915797756739, .056570795065724801
.5, .78867513459481287, .61930959304159849, -.048892231530861779
.5, .78867513459481287, .63477157797617245, .094901641073145582
.5, .78867513459481287, .66212671170190451, .056916578482845821
.5, .78867513459481287, .66999052179242813, -.053840998827251872
.5, .78867513459481287, .68391574949909006, -.11674626826917839
.5, .78867513459481287, .70292257568869854, .047101031173421501
.5, .78867513459481287, .71669769706462361, -.059837048735555461
.5, .78867513459481287, .72424637551822335, .051954011884222565
.5, .78867513459481287, .75954806460340585, .084208859435997332
.5, .78867513459481287, .7627662049581645, -.044616056302633711
.5, .78867513459481287, .7692346550528415, .044763658979432644
.5, .78867513459481287, .78867513459481287, -.068231271694475779
.5, .78867513459481287, .79365897714330869, -.1015837133615338
.5, .78867513459481287, .80668571635029518, .047489060233424508
.5, .78867513459481287, .82117466972017006, .044536495190486823
.5, .78867513459481287, .83060469323313235, -.037695903142989928
.5, .78867513459481287, .83970478414951222, -.048685858336885525
.5, .78867513459481287, .86507600278702468, .06727146505723805
.5, .78867513459481287, .87076559279969723, .034503340809562237
.5, .78867513459481287, .88495133709715235, -.080039164271673846
.5, .78867513459481287, .8872983346207417, .04188641956799756
.5, .78867513459481287, .89833323870681348, -.031627524900036071
.5, .78867513459481287, .90078904536665494, .034718377554947111
.5, .78867513459481287, .91801555366331788, .032918109282174535
.5, .78867513459481287, .93056815579702623, -.028718839923063916
.5, .78867513459481287, .93253168334449232, -.033211410922351636
.5, .78867513459481287, .94353129988404771, .045348466751216052
.5, .78867513459481287, .95205862818523745, -.053469662997659539
.5, .78867513459481287, .95308992296933193, .022158543646474252
.5, .78867513459481287, .95879919961148907, .023030374959432304
.5, .78867513459481287, .96623475710157603, -.017901661244516913
.5, .78867513459481287, .97455395617137919, .015972748661193324
.5, .78867513459481287, .98014492824876809, -.014396947383519518
.5, .78867513459481287, .98408011975381304, .014809999656997192
.5, .78867513459481287, .98695326425858587, -.014815854290818784
.5, .78867513459481287, .98911432907302843, .020102538125283669
.5, .78867513459481287, .99078031712335957, -.023587668193254432
.5, .78867513459481287, .99209152735929407, .010121001191328164
.5, .79365897714330869, .1127016653792583, .028217698155981543
.5, .79365897714330869, .21132486540518713, -.1015837133615338
.5, .79365897714330869, .5, .1918803474606752
.5, .79365897714330869, .78867513459481287, -.1015837133615338
.5, .79365897714330869, .8872983346207417, .028217698155981543
.5, .80668571635029518, .033765242898423975, .011162248817453429
.5, .80668571635029518, .046910077030668074, -.030872840255535432
.5, .80668571635029518, .069431844202973769, .032736417074980331
.5, .80668571635029518, .1127016653792583, -.032174160049745472
.5, .80668571635029518, .16939530676686765, .023504581196873899
.5, .80668571635029518, .21132486540518713, .047489060233424508
.5, .80668571635029518, .2307653449471585, -.062367875568626628
.5, .80668571635029518, .33000947820757187, .061373001070525207
.5, .80668571635029518, .38069040695840151, .03048584408640722
.5, .80668571635029518, .5, -.19973718558882117
.5, .80668571635029518, .61930959304159849, .03048584408640722
.5, .80668571635029518, .66999052179242813, .061373001070525207
.5, .80668571635029518, .7692346550528415, -.062367875568626628
.5, .80668571635029518, .78867513459481287, .047489060233424508
.5, .80668571635029518, .83060469323313235, .023504581196873899
.5, .80668571635029518, .8872983346207417, -.032174160049745472
.5, .80668571635029518, .93056815579702623, .032736417074980331
.5, .80668571635029518, .95308992296933193, -.030872840255535432
.5, .80668571635029518, .96623475710157603, .011162248817453429
.5, .82117466972017006, .21132486540518713, .044536495190486823
.5, .82117466972017006, .5, -.17814598076194729
.5, .82117466972017006, .78867513459481287, .044536495190486823
.5, .83060469323313235, .015919880246186957, .0073301690484613496
.5, .83060469323313235, .019855071751231912, -.018259682994737531
.5, .83060469323313235, .025446043828620812, .016868655584865069
.5, .83060469323313235, .033765242898423975, -.01373495408275153
.5, .83060469323313235, .046910077030668074, .015575283314492873
.5, .83060469323313235, .069431844202973769, -.01784784513766479
.5, .83060469323313235, .081984446336682115, .016292728655132729
.5, .83060469323313235, .10166676129318652, -.04011326590273661
.5, .83060469323313235, .1127016653792583, .02472339326507822
.5, .83060469323313235, .12923440720030277, .036438623369676307
.5, .83060469323313235, .16939530676686765, -.028921980575149001
.5, .83060469323313235, .19331428364970482, .023504581196873899
.5, .83060469323313235, .21132486540518713, -.037695903142989928
.5, .83060469323313235, .2307653449471585, .031464462733720416
.5, .83060469323313235, .2372337950418355, -.056586651521282096
.5, .83060469323313235, .29707742431130146, .049742914598462168
.5, .83060469323313235, .33000947820757187, -.033460467473627076
.5, .83060469323313235, .33787328829809549, .028170705712485405
.5, .83060469323313235, .38069040695840151, -.037512303797242637
.5, .83060469323313235, .40828267875217505, -.06542118610531536
.5, .83060469323313235, .5, .2286698638066611
.5, .83060469323313235, .59171732124782495, -.06542118610531536
.5, .83060469323313235, .61930959304159849, -.037512303797242637
.5, .83060469323313235, .66212671170190451, .028170705712485405
.5, .83060469323313235, .66999052179242813, -.033460467473627076
.5, .83060469323313235, .70292257568869854, .049742914598462168
.5, .83060469323313235, .7627662049581645, -.056586651521282096
.5, .83060469323313235, .7692346550528415, .031464462733720416
.5, .83060469323313235, .78867513459481287, -.037695903142989928
.5, .83060469323313235, .80668571635029518, .023504581196873899
.5, .83060469323313235, .83060469323313235, -.028921980575149001
.5, .83060469323313235, .87076559279969723, .036438623369676307
.5, .83060469323313235, .8872983346207417, .02472339326507822
.5, .83060469323313235, .89833323870681348, -.04011326590273661
.5, .83060469323313235, .91801555366331788, .016292728655132729
.5, .83060469323313235, .93056815579702623, -.01784784513766479
.5, .83060469323313235, .95308992296933193, .015575283314492873
.5, .83060469323313235, .96623475710157603, -.01373495408275153
.5, .83060469323313235, .97455395617137919, .016868655584865069
.5, .83060469323313235, .98014492824876809, -.018259682994737531
.5, .83060469323313235, .98408011975381304, .0073301690484613496
.5, .83970478414951222, .046910077030668074, .012976862357300485
.5, .83970478414951222, .069431844202973769, -.038105126352362427
.5, .83970478414951222, .1127016653792583, .043952510998577027
.5, .83970478414951222, .21132486540518713, -.048685858336885525
.5, .83970478414951222, .2307653449471585, .026215253603892139
.5, .83970478414951222, .33000947820757187, -.071438054905629697
.5, .83970478414951222, .5, .18132777460582289
.5, .83970478414951222, .66999052179242813, -.071438054905629697
.5, .83970478414951222, .7692346550528415, .026215253603892139
.5, .83970478414951222, .78867513459481287, -.048685858336885525
.5, .83970478414951222, .8872983346207417, .043952510998577027
.5, .83970478414951222, .93056815579702623, -.038105126352362427
.5, .83970478414951222, .95308992296933193, .012976862357300485
.5, .84364645240584268, .5, .078601583579097384
.5, .86507600278702468, .069431844202973769, .016200488118222608
.5, .86507600278702468, .1127016653792583, -.051747280813259869
.5, .86507600278702468, .21132486540518713, .06727146505723805
.5, .86507600278702468, .33000947820757187, .030372064613711384
.5, .86507600278702468, .5, -.16559129860243244
.5, .86507600278702468, .66999052179242813, .030372064613711384
.5, .86507600278702468, .78867513459481287, .06727146505723805
.5, .86507600278702468, .8872983346207417, -.051747280813259869
.5, .86507600278702468, .93056815579702623, .016200488118222608
.5, .87076559279969723, .019855071751231912, .0070785418432462097
.5, .87076559279969723, .025446043828620812, -.018108821577119062
.5, .87076559279969723, .033765242898423975, .017304583187889185
.5, .87076559279969723, .046910077030668074, -.014726606030883478
.5, .87076559279969723, .069431844202973769, .017729652894511831
.5, .87076559279969723, .10166676129318652, .015550293575393146
.5, .87076559279969723, .1127016653792583, -.022100179080634587
.5, .87076559279969723, .12923440720030277, -.039117553014085524
.5, .87076559279969723, .16939530676686765, .036438623369676307
.5, .87076559279969723, .21132486540518713, .034503340809562237
.5, .87076559279969723, .2307653449471585, -.029750004368893405
.5, .87076559279969723, .2372337950418355, .021936360049516001
.5, .87076559279969723, .29707742431130146, -.053399961879453339
.5, .87076559279969723, .33000947820757187, .033238885110201663
.5, .87076559279969723, .38069040695840151, .047261518146896858
.5, .87076559279969723, .40828267875217505, .025361152404164661
.5, .87076559279969723, .5, -.18762601015395958
.5, .87076559279969723, .59171732124782495, .025361152404164661
.5, .87076559279969723, .61930959304159849, .047261518146896858
.5, .87076559279969723, .66999052179242813, .033238885110201663
.5, .87076559279969723, .70292257568869854, -.053399961879453339
.5, .87076559279969723, .7627662049581645, .021936360049516001
.5, .87076559279969723, .7692346550528415, -.029750004368893405
.5, .87076559279969723, .78867513459481287, .034503340809562237
.5, .87076559279969723, .83060469323313235, .036438623369676307
.5, .87076559279969723, .87076559279969723, -.039117553014085524
.5, .87076559279969723, .8872983346207417, -.022100179080634587
.5, .87076559279969723, .89833323870681348, .015550293575393146
.5, .87076559279969723, .93056815579702623, .017729652894511831
.5, .87076559279969723, .95308992296933193, -.014726606030883478
.5, .87076559279969723, .96623475710157603, .017304583187889185
.5, .87076559279969723, .97455395617137919, -.018108821577119062
.5, .87076559279969723, .98014492824876809, .0070785418432462097
.5, .88495133709715235, .1127016653792583, .022233101186576017
.5, .88495133709715235, .21132486540518713, -.080039164271673846
.5, .88495133709715235, .5, .15118508806871747
.5, .88495133709715235, .78867513459481287, -.080039164271673846
.5, .88495133709715235, .8872983346207417, .022233101186576017
.5, .8872983346207417, .0092196828766404337, .0065521300536817715
.5, .8872983346207417, .010885670926971569, -.015463490865602773
.5, .8872983346207417, .013046735741414128, .013375424012544679
.5, .8872983346207417, .015919880246186957, -.01003387510636662
.5, .8872983346207417, .019855071751231912, .01024782713063016
.5, .8872983346207417, .025446043828620812, -.010230910907169556
.5, .8872983346207417, .033765242898423975, .01174105868660443
.5, .8872983346207417, .046910077030668074, -.013753578815052963
.5, .8872983346207417, .047941371814762546, .014852684166016506
.5, .8872983346207417, .056468700115952286, -.034883435962473772
.5, .8872983346207417, .067468316655507676, .029982523749345097
.5, .8872983346207417, .069431844202973769, .018073922694636556
.5, .8872983346207417, .081984446336682115, -.022302242061093765
.5, .8872983346207417, .10166676129318652, .022512647932317227
.5, .8872983346207417, .1127016653792583, -.025481431713060311
.5, .8872983346207417, .11504866290284765, .022233101186576017
.5, .8872983346207417, .12923440720030277, -.02210017908063459
.5, .8872983346207417, .13492399721297532, -.051747280813259869
.5, .8872983346207417, .16029521585048778, .043952510998577027
.5, .8872983346207417, .16939530676686765, .02472339326507822
.5, .8872983346207417, .19331428364970482, -.032174160049745472
.5, .8872983346207417, .20634102285669131, .028217698155981543
.5, .8872983346207417, .21132486540518713, .04188641956799756
.5, .8872983346207417, .2307653449471585, -.027784340056199532
.5, .8872983346207417, .2372337950418355, .031757956743193975
.5, .8872983346207417, .24045193539659415, -.064776045719997732
.5, .8872983346207417, .28330230293537639, .05401955788626512
.5, .8872983346207417, .29707742431130146, -.03016928794114573
.5, .8872983346207417, .31608425050090994, .032429518963660586
.5, .8872983346207417, .33000947820757187, .033884309157775655
.5, .8872983346207417, .33787328829809549, -.038561367535803241
.5, .8872983346207417, .36522842202382755, -.073001262363957903
.5, .8872983346207417, .38069040695840151, .032066664198481809
.5, .8872983346207417, .40828267875217505, .036716136095093929
.5, .8872983346207417, .42556283050918442, .059287267303886095
.5, .8872983346207417, .43738329574426549, .034603756362972839
.5, .8872983346207417, .5, -.29921350069199232
.5, .8872983346207417, .56261670425573451, .034603756362972839
.5, .8872983346207417, .57443716949081558, .059287267303886095
.5, .8872983346207417, .59171732124782495, .036716136095093929
.5, .8872983346207417, .61930959304159849, .032066664198481809
.5, .8872983346207417, .63477157797617245, -.073001262363957903
.5, .8872983346207417, .66212671170190451, -.038561367535803241
.5, .8872983346207417, .66999052179242813, .033884309157775655
.5, .8872983346207417, .68391574949909006, .032429518963660586
.5, .8872983346207417, .70292257568869854, -.03016928794114573
.5, .8872983346207417, .71669769706462361, .05401955788626512
.5, .8872983346207417, .75954806460340585, -.064776045719997732
.5, .8872983346207417, .7627662049581645, .031757956743193975
.5, .8872983346207417, .7692346550528415, -.027784340056199532
.5, .8872983346207417, .78867513459481287, .04188641956799756
.5, .8872983346207417, .79365897714330869, .028217698155981543
.5, .8872983346207417, .80668571635029518, -.032174160049745472
.5, .8872983346207417, .83060469323313235, .02472339326507822
.5, .8872983346207417, .83970478414951222, .043952510998577027
.5, .8872983346207417, .86507600278702468, -.051747280813259869
.5, .8872983346207417, .87076559279969723, -.02210017908063459
.5, .8872983346207417, .88495133709715235, .022233101186576017
.5, .8872983346207417, .8872983346207417, -.025481431713060311
.5, .8872983346207417, .89833323870681348, .022512647932317227
.5, .8872983346207417, .91801555366331788, -.022302242061093765
.5, .8872983346207417, .93056815579702623, .018073922694636556
.5, .8872983346207417, .93253168334449232, .029982523749345097
.5, .8872983346207417, .94353129988404771, -.034883435962473772
