.025446043828620812, .5, .064742483084431646
.033765242898423975, .21132486540518713, .042831123094790882
.033765242898423975, .5, -.085662246189581764
.033765242898423975, .78867513459481287, .042831123094790882
.046910077030668074, .1127016653792583, .032906511813358713
.046910077030668074, .21132486540518713, -.059231721264045814
.046910077030668074, .5, .052650418901374209
.046910077030668074, .78867513459481287, -.059231721264045814
.046910077030668074, .8872983346207417, .032906511813358713
.069431844202973769, .069431844202973769, .030250748321399748
.069431844202973769, .1127016653792583, -.048313172935756744
.069431844202973769, .33000947820757187, .056712962962962597
.069431844202973769, .5, -.077301076697211188
.069431844202973769, .66999052179242813, .056712962962962597
.069431844202973769, .8872983346207417, -.048313172935756744
.069431844202973769, .93056815579702623, .030250748321399748
.1127016653792583, .046910077030668074, .032906511813358713
.1127016653792583, .069431844202973769, -.048313172935756744
.1127016653792583, .2307653449471585, .066476204236023406
.1127016653792583, .33000947820757187, -.090575715953131686
.1127016653792583, .5, .079012345679012677
.1127016653792583, .66999052179242813, -.090575715953131686
.1127016653792583, .7692346550528415, .066476204236023406
.1127016653792583, .93056815579702623, -.048313172935756744
.1127016653792583, .95308992296933193, .032906511813358713
.12923440720030277, .5, .13985269574463924
.16939530676686765, .21132486540518713, .090190393262035276
.16939530676686765, .5, -.18038078652407055
.16939530676686765, .78867513459481287, .090190393262035276
.21132486540518713, .033765242898423975, .042831123094790882
.21132486540518713, .046910077030668074, -.059231721264045814
.21132486540518713, .16939530676686765, .090190393262035276
.21132486540518713, .2307653449471585, -.11965716762484239
.21132486540518713, .38069040695840151, .11697848364317363
.21132486540518713, .5, -.14222222222222314
.21132486540518713, .61930959304159849, .11697848364317363
.21132486540518713, .7692346550528415, -.11965716762484239
.21132486540518713, .83060469323313235, .090190393262035276
.21132486540518713, .95308992296933193, -.059231721264045814
.21132486540518713, .96623475710157603, .042831123094790882
.2307653449471585, .1127016653792583, .066476204236023406
.2307653449471585, .21132486540518713, -.11965716762484239
.2307653449471585, .5, .10636192677763799
.2307653449471585, .78867513459481287, -.11965716762484239
.2307653449471585, .8872983346207417, .066476204236023406
.29707742431130146, .5, .19091502525256074
.33000947820757187, .069431844202973769, .056712962962962597
.33000947820757187, .1127016653792583, -.090575715953131686
.33000947820757187, .33000947820757187, .10632332575267484
.33000947820757187, .5, -.14492114552501145
.33000947820757187, .66999052179242813, .10632332575267484
.33000947820757187, .8872983346207417, -.090575715953131686
.33000947820757187, .93056815579702623, .056712962962962597
.38069040695840151, .21132486540518713, .11697848364317363
.38069040695840151, .5, -.23395696728634727
.38069040695840151, .78867513459481287, .11697848364317363
.5, .025446043828620812, .064742483084431646
.5, .033765242898423975, -.085662246189581764
.5, .046910077030668074, .052650418901374209
.5, .069431844202973769, -.077301076697211188
.5, .1127016653792583, .079012345679012677
.5, .12923440720030277, .13985269574463924
.5, .16939530676686765, -.18038078652407055
.5, .21132486540518713, -.14222222222222314
.5, .2307653449471585, .10636192677763799
.5, .29707742431130146, .19091502525256074
.5, .33000947820757187, -.14492114552501145
.5, .38069040695840151, -.23395696728634727
.5, .5, .67079868984631397
.5, .61930959304159849, -.23395696728634727
.5, .66999052179242813, -.14492114552501145
.5, .70292257568869854, .19091502525256074
.5, .7692346550528415, .10636192677763799
.5, .78867513459481287, -.14222222222222314
.5, .83060469323313235, -.18038078652407055
.5, .87076559279969723, .13985269574463924
.5, .8872983346207417, .079012345679012677
.5, .93056815579702623, -.077301076697211188
.5, .95308992296933193, .052650418901374209
.5, .96623475710157603, -.085662246189581764
.5, .97455395617137919, .064742483084431646
.61930959304159849, .21132486540518713, .11697848364317363
.61930959304159849, .5, -.23395696728634727
.61930959304159849, .78867513459481287, .11697848364317363
.66999052179242813, .069431844202973769, .056712962962962597
.66999052179242813, .1127016653792583, -.090575715953131686
.66999052179242813, .33000947820757187, .10632332575267484
.66999052179242813, .5, -.14492114552501145
.66999052179242813, .66999052179242813, .10632332575267484
.66999052179242813, .8872983346207417, -.090575715953131686
.66999052179242813, .93056815579702623, .056712962962962597
.70292257568869854, .5, .19091502525256074
.7692346550528415, .1127016653792583, .066476204236023406
.7692346550528415, .21132486540518713, -.11965716762484239
.7692346550528415, .5, .10636192677763799
.7692346550528415, .78867513459481287, -.11965716762484239
.7692346550528415, .8872983346207417, .066476204236023406
.78867513459481287, .033765242898423975, .042831123094790882
.78867513459481287, .046910077030668074, -.059231721264045814
.78867513459481287, .16939530676686765, .090190393262035276
.78867513459481287, .2307653449471585, -.11965716762484239
.78867513459481287, .38069040695840151, .11697848364317363
.78867513459481287, .5, -.14222222222222314
.78867513459481287, .61930959304159849, .11697848364317363
.78867513459481287, .7692346550528415, -.11965716762484239
.78867513459481287, .83060469323313235, .090190393262035276
.78867513459481287, .95308992296933193, -.059231721264045814
.78867513459481287, .96623475710157603, .042831123094790882
.83060469323313235, .21132486540518713, .090190393262035276
.83060469323313235, .5, -.18038078652407055
.83060469323313235, .78867513459481287, .090190393262035276
.87076559279969723, .5, .13985269574463924
.8872983346207417, .046910077030668074, .032906511813358713
.8872983346207417, .069431844202973769, -.048313172935756744
.8872983346207417, .2307653449471585, .066476204236023406
.8872983346207417, .33000947820757187, -.090575715953131686
.8872983346207417, .5, .079012345679012677
.8872983346207417, .66999052179242813, -.090575715953131686
.8872983346207417, .7692346550528415, .066476204236023406
.8872983346207417, .93056815579702623, -.048313172935756744
.8872983346207417, .95308992296933193, .032906511813358713
.93056815579702623, .069431844202973769, .030250748321399748
.93056815579702623, .1127016653792583, -.048313172935756744
.93056815579702623, .33000947820757187, .056712962962962597
.93056815579702623, .5, -.077301076697211188
.93056815579702623, .66999052179242813, .056712962962962597
.93056815579702623, .8872983346207417, -.048313172935756744
.93056815579702623, .93056815579702623, .030250748321399748
.95308992296933193, .1127016653792583, .032906511813358713
.95308992296933193, .21132486540518713, -.059231721264045814
.95308992296933193, .5, .052650418901374209
.95308992296933193, .78867513459481287, -.059231721264045814
.95308992296933193, .8872983346207417, .032906511813358713
.96623475710157603, .21132486540518713, .042831123094790882
.96623475710157603, .5, -.085662246189581764
.96623475710157603, .78867513459481287, .042831123094790882
.97455395617137919, .5, .064742483084431646
