.95308992296933193, .12923440720030277, .2307653449471585, .003964823924360472
.95308992296933193, .12923440720030277, .33000947820757187, -.010804370366936501
.95308992296933193, .12923440720030277, .5, .012075816945324445
.95308992296933193, .12923440720030277, .66999052179242813, -.010804370366936501
.95308992296933193, .12923440720030277, .7692346550528415, .003964823924360472
.95308992296933193, .12923440720030277, .8872983346207417, .0046020643846510527
.95308992296933193, .12923440720030277, .93056815579702623, -.0057630614178073259
.95308992296933193, .12923440720030277, .95308992296933193, .001962635003070081
.95308992296933193, .13492399721297532, .5, .011034289847891942
.95308992296933193, .16029521585048778, .21132486540518713, .0064884311786502268
.95308992296933193, .16029521585048778, .5, -.025953724714600907
.95308992296933193, .16029521585048778, .78867513459481287, .0064884311786502268
.95308992296933193, .16939530676686765, .033765242898423975, .0018304761865590073
.95308992296933193, .16939530676686765, .046910077030668074, -.0050627789994104992
.95308992296933193, .16939530676686765, .069431844202973769, .0037165731621961176
.95308992296933193, .16939530676686765, .16939530676686765, .0038544720566205731
.95308992296933193, .16939530676686765, .2307653449471585, -.01022759059591467
.95308992296933193, .16939530676686765, .33000947820757187, .006967691306587029
.95308992296933193, .16939530676686765, .38069040695840151, .0049993162256035664
.95308992296933193, .16939530676686765, .5, -.012156318684482248
.95308992296933193, .16939530676686765, .61930959304159849, .0049993162256035664
.95308992296933193, .16939530676686765, .66999052179242813, .006967691306587029
.95308992296933193, .16939530676686765, .7692346550528415, -.01022759059591467
.95308992296933193, .16939530676686765, .83060469323313235, .0038544720566205731
.95308992296933193, .16939530676686765, .93056815579702623, .0037165731621961176
.95308992296933193, .16939530676686765, .95308992296933193, -.0050627789994104992
.95308992296933193, .16939530676686765, .96623475710157603, .0018304761865590073
.95308992296933193, .19331428364970482, .1127016653792583, .0042878944799354564
.95308992296933193, .19331428364970482, .21132486540518713, -.015436420127767679
.95308992296933193, .19331428364970482, .5, .022297051295664443
.95308992296933193, .19331428364970482, .78867513459481287, -.015436420127767679
.95308992296933193, .19331428364970482, .8872983346207417, .0042878944799354564
.95308992296933193, .21132486540518713, .013046735741414128, .0019745292411956061
.95308992296933193, .21132486540518713, .015919880246186957, -.0048140219173382903
.95308992296933193, .21132486540518713, .019855071751231912, .0029979702227592923
.95308992296933193, .21132486540518713, .067468316655507676, .0044261303277114234
.95308992296933193, .21132486540518713, .081984446336682115, -.010700101501140454
.95308992296933193, .21132486540518713, .10166676129318652, .0065860057235762864
.95308992296933193, .21132486540518713, .16029521585048778, .0064884311786502268
.95308992296933193, .21132486540518713, .19331428364970482, -.015436420127767679
.95308992296933193, .21132486540518713, .2372337950418355, .0092906923036589675
.95308992296933193, .21132486540518713, .28330230293537639, .0079745656319269442
.95308992296933193, .21132486540518713, .33787328829809549, -.018500855004873057
.95308992296933193, .21132486540518713, .40828267875217505, .010741192382028459
.95308992296933193, .21132486540518713, .42556283050918442, .0087522042525388123
.95308992296933193, .21132486540518713, .5, -.019560645425853063
.95308992296933193, .21132486540518713, .57443716949081558, .0087522042525388123
.95308992296933193, .21132486540518713, .59171732124782495, .010741192382028459
.95308992296933193, .21132486540518713, .66212671170190451, -.018500855004873057
.95308992296933193, .21132486540518713, .71669769706462361, .0079745656319269442
.95308992296933193, .21132486540518713, .7627662049581645, .0092906923036589675
.95308992296933193, .21132486540518713, .80668571635029518, -.015436420127767679
.95308992296933193, .21132486540518713, .83970478414951222, .0064884311786502268
.95308992296933193, .21132486540518713, .89833323870681348, .0065860057235762864
.95308992296933193, .21132486540518713, .91801555366331788, -.010700101501140454
.95308992296933193, .21132486540518713, .93253168334449232, .0044261303277114234
.95308992296933193, .21132486540518713, .98014492824876809, .0029979702227592923
.95308992296933193, .21132486540518713, .98408011975381304, -.0048140219173382903
.95308992296933193, .21132486540518713, .98695326425858587, .0019745292411956061
.95308992296933193, .2307653449471585, .025446043828620812, .0018354493954436137
.95308992296933193, .2307653449471585, .033765242898423975, -.0048570493589492232
.95308992296933193, .2307653449471585, .046910077030668074, .0033584385956713547
.95308992296933193, .2307653449471585, .12923440720030277, .0039648239243604711
.95308992296933193, .2307653449471585, .16939530676686765, -.01022759059591467
.95308992296933193, .2307653449471585, .2307653449471585, .0067845614043284767
.95308992296933193, .2307653449471585, .29707742431130146, .0054124409659100274
.95308992296933193, .2307653449471585, .38069040695840151, -.01326536004513572
.95308992296933193, .2307653449471585, .5, .01398857142857134
.95308992296933193, .2307653449471585, .61930959304159849, -.01326536004513572
.95308992296933193, .2307653449471585, .70292257568869854, .0054124409659100274
.95308992296933193, .2307653449471585, .7692346550528415, .0067845614043284767
.95308992296933193, .2307653449471585, .83060469323313235, -.01022759059591467
.95308992296933193, .2307653449471585, .87076559279969723, .0039648239243604711
.95308992296933193, .2307653449471585, .95308992296933193, .0033584385956713547
.95308992296933193, .2307653449471585, .96623475710157603, -.0048570493589492232
.95308992296933193, .2307653449471585, .97455395617137919, .0018354493954436137
.95308992296933193, .2372337950418355, .069431844202973769, .0032318123325089858
.95308992296933193, .2372337950418355, .1127016653792583, -.010322991448509939
.95308992296933193, .2372337950418355, .21132486540518713, .0092906923036589675
.95308992296933193, .2372337950418355, .33000947820757187, .0060588799711499813
.95308992296933193, .2372337950418355, .5, -.016516786317615988
.95308992296933193, .2372337950418355, .66999052179242813, .0060588799711499813
.95308992296933193, .2372337950418355, .78867513459481287, .0092906923036589675
.95308992296933193, .2372337950418355, .8872983346207417, -.010322991448509939
.95308992296933193, .2372337950418355, .93056815579702623, .0032318123325089858
.95308992296933193, .24045193539659415, .5, .01381246806482639
.95308992296933193, .28330230293537639, .21132486540518713, .0079745656319269442
.95308992296933193, .28330230293537639, .5, -.031898262527707777
.95308992296933193, .28330230293537639, .78867513459481287, .0079745656319269442
.95308992296933193, .29707742431130146, .046910077030668074, .0026792226576515367
.95308992296933193, .29707742431130146, .069431844202973769, -.0078672421025171302
.95308992296933193, .29707742431130146, .1127016653792583, .006282347533821093
.95308992296933193, .29707742431130146, .2307653449471585, .0054124409659100274
.95308992296933193, .29707742431130146, .33000947820757187, -.01474920901923886
.95308992296933193, .29707742431130146, .5, .016484879928746664
.95308992296933193, .29707742431130146, .66999052179242813, -.01474920901923886
.95308992296933193, .29707742431130146, .7692346550528415, .0054124409659100274
.95308992296933193, .29707742431130146, .8872983346207417, .006282347533821093
.95308992296933193, .29707742431130146, .93056815579702623, -.0078672421025171302
.95308992296933193, .29707742431130146, .95308992296933193, .0026792226576515367
.95308992296933193, .33000947820757187, .019855071751231912, .0019551117551946731
.95308992296933193, .33000947820757187, .025446043828620812, -.0050017038427100464
.95308992296933193, .33000947820757187, .033765242898423975, .0033089338370204894
.95308992296933193, .33000947820757187, .10166676129318652, .0042950317225273005
.95308992296933193, .33000947820757187, .12923440720030277, -.010804370366936501
.95308992296933193, .33000947820757187, .16939530676686765, .0069676913065870281
.95308992296933193, .33000947820757187, .2372337950418355, .0060588799711499821
.95308992296933193, .33000947820757187, .29707742431130146, -.01474920901923886
.95308992296933193, .33000947820757187, .38069040695840151, .0090372148746508344
.95308992296933193, .33000947820757187, .40828267875217505, .0070048165693863953
.95308992296933193, .33000947820757187, .5, -.016144793615262609
.95308992296933193, .33000947820757187, .59171732124782495, .0070048165693863953
.95308992296933193, .33000947820757187, .61930959304159849, .0090372148746508344
.95308992296933193, .33000947820757187, .70292257568869854, -.01474920901923886
.95308992296933193, .33000947820757187, .7627662049581645, .0060588799711499821
.95308992296933193, .33000947820757187, .83060469323313235, .0069676913065870281
.95308992296933193, .33000947820757187, .87076559279969723, -.010804370366936501
.95308992296933193, .33000947820757187, .89833323870681348, .0042950317225273005
.95308992296933193, .33000947820757187, .96623475710157603, .0033089338370204894
.95308992296933193, .33000947820757187, .97455395617137919, -.0050017038427100464
.95308992296933193, .33000947820757187, .98014492824876809, .0019551117551946731
.95308992296933193, .33787328829809549, .1127016653792583, .0051391263902425032
.95308992296933193, .33787328829809549, .21132486540518713, -.018500855004873057
.95308992296933193, .33787328829809549, .5, .026723457229261102
.95308992296933193, .33787328829809549, .78867513459481287, -.018500855004873057
.95308992296933193, .33787328829809549, .8872983346207417, .0051391263902425032
.95308992296933193, .36522842202382755, .5, .015566365527355571
.95308992296933193, .38069040695840151, .033765242898423975, .0023741589420338623
.95308992296933193, .38069040695840151, .046910077030668074, -.0065665110102235214
.95308992296933193, .38069040695840151, .069431844202973769, .0048204589994356303
.95308992296933193, .38069040695840151, .16939530676686765, .0049993162256035664
.95308992296933193, .38069040695840151, .2307653449471585, -.01326536004513572
.95308992296933193, .38069040695840151, .33000947820757187, .0090372148746508361
.95308992296933193, .38069040695840151, .38069040695840151, .0064841987064490382
.95308992296933193, .38069040695840151, .5, -.015766953385627388
.95308992296933193, .38069040695840151, .61930959304159849, .0064841987064490382
.95308992296933193, .38069040695840151, .66999052179242813, .0090372148746508361
.95308992296933193, .38069040695840151, .7692346550528415, -.01326536004513572
.95308992296933193, .38069040695840151, .83060469323313235, .0049993162256035664
.95308992296933193, .38069040695840151, .93056815579702623, .0048204589994356303
.95308992296933193, .38069040695840151, .95308992296933193, -.0065665110102235214
.95308992296933193, .38069040695840151, .96623475710157603, .0023741589420338623
.95308992296933193, .40828267875217505, .069431844202973769, .003736375812642064
.95308992296933193, .40828267875217505, .1127016653792583, -.011934658202253815
.95308992296933193, .40828267875217505, .21132486540518713, .010741192382028459
.95308992296933193, .40828267875217505, .33000947820757187, .0070048165693863953
.95308992296933193, .40828267875217505, .5, -.019095453123606203
.95308992296933193, .40828267875217505, .66999052179242813, .0070048165693863953
.95308992296933193, .40828267875217505, .78867513459481287, .010741192382028459
.95308992296933193, .40828267875217505, .8872983346207417, -.011934658202253815
.95308992296933193, .40828267875217505, .93056815579702623, .003736375812642064
.95308992296933193, .42556283050918442, .21132486540518713, .0087522042525388123
.95308992296933193, .42556283050918442, .5, -.035008817010155249
.95308992296933193, .42556283050918442, .78867513459481287, .0087522042525388123
.95308992296933193, .5, .010885670926971569, .0032973450505938097
.95308992296933193, .5, .013046735741414128, -.0078981169647824243
.95308992296933193, .5, .015919880246186957, .0069535872139330924
.95308992296933193, .5, .019855071751231912, -.0053297248404609796
.95308992296933193, .5, .025446043828620812, .0055902989223811875
.95308992296933193, .5, .033765242898423975, -.0057729960267701328
.95308992296933193, .5, .046910077030668074, .0069245092474285782
.95308992296933193, .5, .056468700115952286, .007438341440381184
.95308992296933193, .5, .067468316655507676, -.017704521310845694
.95308992296933193, .5, .069431844202973769, -.0086116482518327226
.95308992296933193, .5, .081984446336682115, .015455702168314002
.95308992296933193, .5, .10166676129318652, -.01170845461969121
.95308992296933193, .5, .1127016653792583, .012310302025818969
.95308992296933193, .5, .12923440720030277, .012075816945324445
.95308992296933193, .5, .13492399721297532, .011034289847891942
.95308992296933193, .5, .16029521585048778, -.025953724714600907
.95308992296933193, .5, .16939530676686765, -.012156318684482248
.95308992296933193, .5, .19331428364970482, .022297051295664443
.95308992296933193, .5, .21132486540518713, -.019560645425853063
.95308992296933193, .5, .2307653449471585, .01398857142857134
.95308992296933193, .5, .2372337950418355, -.016516786317615988
.95308992296933193, .5, .24045193539659415, .01381246806482639
.95308992296933193, .5, .28330230293537639, -.031898262527707777
.95308992296933193, .5, .29707742431130146, .016484879928746664
.95308992296933193, .5, .33000947820757187, -.016144793615262609
.95308992296933193, .5, .33787328829809549, .026723457229261106
.95308992296933193, .5, .36522842202382755, .015566365527355571
.95308992296933193, .5, .38069040695840151, -.015766953385627388
.95308992296933193, .5, .40828267875217505, -.019095453123606207
.95308992296933193, .5, .42556283050918442, -.035008817010155249
.95308992296933193, .5, .5, .13451428363159795
.95308992296933193, .5, .57443716949081558, -.035008817010155249
.95308992296933193, .5, .59171732124782495, -.019095453123606207
.95308992296933193, .5, .61930959304159849, -.015766953385627388
.95308992296933193, .5, .63477157797617245, .015566365527355571
.95308992296933193, .5, .66212671170190451, .026723457229261106
.95308992296933193, .5, .66999052179242813, -.016144793615262609
.95308992296933193, .5, .70292257568869854, .016484879928746664
.95308992296933193, .5, .71669769706462361, -.031898262527707777
.95308992296933193, .5, .75954806460340585, .01381246806482639
.95308992296933193, .5, .7627662049581645, -.016516786317615988
.95308992296933193, .5, .7692346550528415, .01398857142857134
.95308992296933193, .5, .78867513459481287, -.019560645425853063
.95308992296933193, .5, .80668571635029518, .022297051295664443
.95308992296933193, .5, .83060469323313235, -.012156318684482248
.95308992296933193, .5, .83970478414951222, -.025953724714600907
.95308992296933193, .5, .86507600278702468, .011034289847891942
.95308992296933193, .5, .87076559279969723, .012075816945324445
.95308992296933193, .5, .8872983346207417, .012310302025818969
.95308992296933193, .5, .89833323870681348, -.01170845461969121
.95308992296933193, .5, .91801555366331788, .015455702168314002
.95308992296933193, .5, .93056815579702623, -.0086116482518327226
.95308992296933193, .5, .93253168334449232, -.017704521310845694
.95308992296933193, .5, .94353129988404771, .007438341440381184
.95308992296933193, .5, .95308992296933193, .0069245092474285782
.95308992296933193, .5, .96623475710157603, -.0057729960267701328
.95308992296933193, .5, .97455395617137919, .0055902989223811875
.95308992296933193, .5, .98014492824876809, -.0053297248404609796
.95308992296933193, .5, .98408011975381304, .0069535872139330924
.95308992296933193, .5, .98695326425858587, -.0078981169647824243
.95308992296933193, .5, .98911432907302843, .0032973450505938097
.95308992296933193, .57443716949081558, .21132486540518713, .0087522042525388123
.95308992296933193, .57443716949081558, .5, -.035008817010155249
.95308992296933193, .57443716949081558, .78867513459481287, .0087522042525388123
.95308992296933193, .59171732124782495, .069431844202973769, .003736375812642064
.95308992296933193, .59171732124782495, .1127016653792583, -.011934658202253815
.95308992296933193, .59171732124782495, .21132486540518713, .010741192382028459
.95308992296933193, .59171732124782495, .33000947820757187, .0070048165693863953
.95308992296933193, .59171732124782495, .5, -.019095453123606203
.95308992296933193, .59171732124782495, .66999052179242813, .0070048165693863953
.95308992296933193, .59171732124782495, .78867513459481287, .010741192382028459
.95308992296933193, .59171732124782495, .8872983346207417, -.011934658202253815
.95308992296933193, .59171732124782495, .93056815579702623, .003736375812642064
.95308992296933193, .61930959304159849, .033765242898423975, .0023741589420338623
.95308992296933193, .61930959304159849, .046910077030668074, -.0065665110102235214
.95308992296933193, .61930959304159849, .069431844202973769, .0048204589994356303
.95308992296933193, .61930959304159849, .16939530676686765, .0049993162256035664
.95308992296933193, .61930959304159849, .2307653449471585, -.01326536004513572
.95308992296933193, .61930959304159849, .33000947820757187, .0090372148746508361
.95308992296933193, .61930959304159849, .38069040695840151, .0064841987064490382
.95308992296933193, .61930959304159849, .5, -.015766953385627388
.95308992296933193, .61930959304159849, .61930959304159849, .0064841987064490382
.95308992296933193, .61930959304159849, .66999052179242813, .0090372148746508361
.95308992296933193, .61930959304159849, .7692346550528415, -.01326536004513572
.95308992296933193, .61930959304159849, .83060469323313235, .0049993162256035664
.95308992296933193, .61930959304159849, .93056815579702623, .0048204589994356303
.95308992296933193, .61930959304159849, .95308992296933193, -.0065665110102235214
.95308992296933193, .61930959304159849, .96623475710157603, .0023741589420338623
.95308992296933193, .63477157797617245, .5, .015566365527355571
.95308992296933193, .66212671170190451, .1127016653792583, .0051391263902425032
.95308992296933193, .66212671170190451, .21132486540518713, -.018500855004873057
.95308992296933193, .66212671170190451, .5, .026723457229261102
.95308992296933193, .66212671170190451, .78867513459481287, -.018500855004873057
.95308992296933193, .66212671170190451, .8872983346207417, .0051391263902425032
.95308992296933193, .66999052179242813, .019855071751231912, .0019551117551946731
.95308992296933193, .66999052179242813, .025446043828620812, -.0050017038427100464
.95308992296933193, .66999052179242813, .033765242898423975, .0033089338370204894
.95308992296933193, .66999052179242813, .10166676129318652, .0042950317225273005
.95308992296933193, .66999052179242813, .12923440720030277, -.010804370366936501
.95308992296933193, .66999052179242813, .16939530676686765, .0069676913065870281
.95308992296933193, .66999052179242813, .2372337950418355, .0060588799711499821
.95308992296933193, .66999052179242813, .29707742431130146, -.01474920901923886
.95308992296933193, .66999052179242813, .38069040695840151, .0090372148746508344
.95308992296933193, .66999052179242813, .40828267875217505, .0070048165693863953
.95308992296933193, .66999052179242813, .5, -.016144793615262609
.95308992296933193, .66999052179242813, .59171732124782495, .0070048165693863953
.95308992296933193, .66999052179242813, .61930959304159849, .0090372148746508344
.95308992296933193, .66999052179242813, .70292257568869854, -.01474920901923886
.95308992296933193, .66999052179242813, .7627662049581645, .0060588799711499821
.95308992296933193, .66999052179242813, .83060469323313235, .0069676913065870281
.95308992296933193, .66999052179242813, .87076559279969723, -.010804370366936501
.95308992296933193, .66999052179242813, .89833323870681348, .0042950317225273005
.95308992296933193, .66999052179242813, .96623475710157603, .0033089338370204894
.95308992296933193, .66999052179242813, .97455395617137919, -.0050017038427100464
.95308992296933193, .66999052179242813, .98014492824876809, .0019551117551946731
.95308992296933193, .70292257568869854, .046910077030668074, .0026792226576515367
.95308992296933193, .70292257568869854, .069431844202973769, -.0078672421025171302
.95308992296933193, .70292257568869854, .1127016653792583, .006282347533821093
.95308992296933193, .70292257568869854, .2307653449471585, .0054124409659100274
.95308992296933193, .70292257568869854, .33000947820757187, -.01474920901923886
.95308992296933193, .70292257568869854, .5, .016484879928746664
.95308992296933193, .70292257568869854, .66999052179242813, -.01474920901923886
.95308992296933193, .70292257568869854, .7692346550528415, .0054124409659100274
.95308992296933193, .70292257568869854, .8872983346207417, .006282347533821093
.95308992296933193, .70292257568869854, .93056815579702623, -.0078672421025171302
.95308992296933193, .70292257568869854, .95308992296933193, .0026792226576515367
.95308992296933193, .71669769706462361, .21132486540518713, .0079745656319269442
.95308992296933193, .71669769706462361, .5, -.031898262527707777
.95308992296933193, .71669769706462361, .78867513459481287, .0079745656319269442
.95308992296933193, .75954806460340585, .5, .01381246806482639
.95308992296933193, .7627662049581645, .069431844202973769, .0032318123325089858
.95308992296933193, .7627662049581645, .1127016653792583, -.010322991448509939
.95308992296933193, .7627662049581645, .21132486540518713, .0092906923036589675
.95308992296933193, .7627662049581645, .33000947820757187, .0060588799711499813
.95308992296933193, .7627662049581645, .5, -.016516786317615988
.95308992296933193, .7627662049581645, .66999052179242813, .0060588799711499813
.95308992296933193, .7627662049581645, .78867513459481287, .0092906923036589675
.95308992296933193, .7627662049581645, .8872983346207417, -.010322991448509939
.95308992296933193, .7627662049581645, .93056815579702623, .0032318123325089858
.95308992296933193, .7692346550528415, .025446043828620812, .0018354493954436137
.95308992296933193, .7692346550528415, .033765242898423975, -.0048570493589492232
.95308992296933193, .7692346550528415, .046910077030668074, .0033584385956713547
.95308992296933193, .7692346550528415, .12923440720030277, .0039648239243604711
.95308992296933193, .7692346550528415, .16939530676686765, -.01022759059591467
.95308992296933193, .7692346550528415, .2307653449471585, .0067845614043284767
.95308992296933193, .7692346550528415, .29707742431130146, .0054124409659100274
.95308992296933193, .7692346550528415, .38069040695840151, -.01326536004513572
.95308992296933193, .7692346550528415, .5, .01398857142857134
.95308992296933193, .7692346550528415, .61930959304159849, -.01326536004513572
.95308992296933193, .7692346550528415, .70292257568869854, .0054124409659100274
.95308992296933193, .7692346550528415, .7692346550528415, .0067845614043284767
.95308992296933193, .7692346550528415, .83060469323313235, -.01022759059591467
.95308992296933193, .7692346550528415, .87076559279969723, .0039648239243604711
.95308992296933193, .7692346550528415, .95308992296933193, .0033584385956713547
.95308992296933193, .7692346550528415, .96623475710157603, -.0048570493589492232
.95308992296933193, .7692346550528415, .97455395617137919, .0018354493954436137
.95308992296933193, .78867513459481287, .013046735741414128, .0019745292411956061
.95308992296933193, .78867513459481287, .015919880246186957, -.0048140219173382903
.95308992296933193, .78867513459481287, .019855071751231912, .0029979702227592923
.95308992296933193, .78867513459481287, .067468316655507676, .0044261303277114234
.95308992296933193, .78867513459481287, .081984446336682115, -.010700101501140454
.95308992296933193, .78867513459481287, .10166676129318652, .0065860057235762864
.95308992296933193, .78867513459481287, .16029521585048778, .0064884311786502268
.95308992296933193, .78867513459481287, .19331428364970482, -.015436420127767679
.95308992296933193, .78867513459481287, .2372337950418355, .0092906923036589675
.95308992296933193, .78867513459481287, .28330230293537639, .0079745656319269442
.95308992296933193, .78867513459481287, .33787328829809549, -.018500855004873057
.95308992296933193, .78867513459481287, .40828267875217505, .010741192382028459
.95308992296933193, .78867513459481287, .42556283050918442, .0087522042525388123
.95308992296933193, .78867513459481287, .5, -.019560645425853063
.95308992296933193, .78867513459481287, .57443716949081558, .0087522042525388123
.95308992296933193, .78867513459481287, .59171732124782495, .010741192382028459
.95308992296933193, .78867513459481287, .66212671170190451, -.018500855004873057
.95308992296933193, .78867513459481287, .71669769706462361, .0079745656319269442
.95308992296933193, .78867513459481287, .7627662049581645, .0092906923036589675
.95308992296933193, .78867513459481287, .80668571635029518, -.015436420127767679
.95308992296933193, .78867513459481287, .83970478414951222, .0064884311786502268
.95308992296933193, .78867513459481287, .89833323870681348, .0065860057235762864
.95308992296933193, .78867513459481287, .91801555366331788, -.010700101501140454
.95308992296933193, .78867513459481287, .93253168334449232, .0044261303277114234
.95308992296933193, .78867513459481287, .98014492824876809, .0029979702227592923
.95308992296933193, .78867513459481287, .98408011975381304, -.0048140219173382903
.95308992296933193, .78867513459481287, .98695326425858587, .0019745292411956061
.95308992296933193, .80668571635029518, .1127016653792583, .0042878944799354564
.95308992296933193, .80668571635029518, .21132486540518713, -.015436420127767679
.95308992296933193, .80668571635029518, .5, .022297051295664443
.95308992296933193, .80668571635029518, .78867513459481287, -.015436420127767679
.95308992296933193, .80668571635029518, .8872983346207417, .0042878944799354564
.95308992296933193, .83060469323313235, .033765242898423975, .0018304761865590073
.95308992296933193, .83060469323313235, .046910077030668074, -.0050627789994104992
.95308992296933193, .83060469323313235, .069431844202973769, .0037165731621961176
.95308992296933193, .83060469323313235, .16939530676686765, .0038544720566205731
.95308992296933193, .83060469323313235, .2307653449471585, -.01022759059591467
.95308992296933193, .83060469323313235, .33000947820757187, .006967691306587029
.95308992296933193, .83060469323313235, .38069040695840151, .0049993162256035664
.95308992296933193, .83060469323313235, .5, -.012156318684482248
.95308992296933193, .83060469323313235, .61930959304159849, .0049993162256035664
.95308992296933193, .83060469323313235, .66999052179242813, .006967691306587029
.95308992296933193, .83060469323313235, .7692346550528415, -.01022759059591467
.95308992296933193, .83060469323313235, .83060469323313235, .0038544720566205731
.95308992296933193, .83060469323313235, .93056815579702623, .0037165731621961176
.95308992296933193, .83060469323313235, .95308992296933193, -.0050627789994104992
.95308992296933193, .83060469323313235, .96623475710157603, .0018304761865590073
.95308992296933193, .83970478414951222, .21132486540518713, .0064884311786502268
.95308992296933193, .83970478414951222, .5, -.025953724714600907
.95308992296933193, .83970478414951222, .78867513459481287, .0064884311786502268
.95308992296933193, .86507600278702468, .5, .011034289847891942
.95308992296933193, .87076559279969723, .046910077030668074, .001962635003070081
.95308992296933193, .87076559279969723, .069431844202973769, -.0057630614178073259
.95308992296933193, .87076559279969723, .1127016653792583, .0046020643846510527
.95308992296933193, .87076559279969723, .2307653449471585, .003964823924360472
.95308992296933193, .87076559279969723, .33000947820757187, -.010804370366936501
.95308992296933193, .87076559279969723, .5, .012075816945324445
.95308992296933193, .87076559279969723, .66999052179242813, -.010804370366936501
.95308992296933193, .87076559279969723, .7692346550528415, .003964823924360472
.95308992296933193, .87076559279969723, .8872983346207417, .0046020643846510527
.95308992296933193, .87076559279969723, .93056815579702623, -.0057630614178073259
.95308992296933193, .87076559279969723, .95308992296933193, .001962635003070081
.95308992296933193, .8872983346207417, .015919880246186957, .0013372283103717443
.95308992296933193, .8872983346207417, .019855071751231912, -.0033310780252880949
.95308992296933193, .8872983346207417, .025446043828620812, .002130449284444036
.95308992296933193, .8872983346207417, .081984446336682115, .0029722504169834526
.95308992296933193, .8872983346207417, .10166676129318652, -.0073177841373069695
.95308992296933193, .8872983346207417, .12923440720030277, .0046020643846510527
.95308992296933193, .8872983346207417, .19331428364970482, .0042878944799354564
.95308992296933193, .8872983346207417, .2372337950418355, -.010322991448509939
.95308992296933193, .8872983346207417, .29707742431130146, .006282347533821093
.95308992296933193, .8872983346207417, .33787328829809549, .005139126390242504
.95308992296933193, .8872983346207417, .40828267875217505, -.011934658202253817
.95308992296933193, .8872983346207417, .5, .012310302025818971
.95308992296933193, .8872983346207417, .59171732124782495, -.011934658202253817
.95308992296933193, .8872983346207417, .66212671170190451, .005139126390242504
.95308992296933193, .8872983346207417, .70292257568869854, .006282347533821093
.95308992296933193, .8872983346207417, .7627662049581645, -.010322991448509939
.95308992296933193, .8872983346207417, .80668571635029518, .0042878944799354564
.95308992296933193, .8872983346207417, .87076559279969723, .0046020643846510527
.95308992296933193, .8872983346207417, .89833323870681348, -.0073177841373069695
.95308992296933193, .8872983346207417, .91801555366331788, .0029722504169834526
.95308992296933193, .8872983346207417, .97455395617137919, .002130449284444036
.95308992296933193, .8872983346207417, .98014492824876809, -.0033310780252880949
.95308992296933193, .8872983346207417, .98408011975381304, .0013372283103717443
.95308992296933193, .89833323870681348, .069431844202973769, .0022909740010489863
.95308992296933193, .89833323870681348, .1127016653792583, -.0073177841373069687
.95308992296933193, .89833323870681348, .21132486540518713, .0065860057235762864
.95308992296933193, .89833323870681348, .33000947820757187, .0042950317225273005
.95308992296933193, .89833323870681348, .5, -.011708454619691208
.95308992296933193, .89833323870681348, .66999052179242813, .0042950317225273005
.95308992296933193, .89833323870681348, .78867513459481287, .0065860057235762864
.95308992296933193, .89833323870681348, .8872983346207417, -.0073177841373069687
.95308992296933193, .89833323870681348, .93056815579702623, .0022909740010489863
.95308992296933193, .91801555366331788, .1127016653792583, .0029722504169834526
.95308992296933193, .91801555366331788, .21132486540518713, -.010700101501140454
.95308992296933193, .91801555366331788, .5, .015455702168314002
.95308992296933193, .91801555366331788, .78867513459481287, -.010700101501140454
.95308992296933193, .91801555366331788, .8872983346207417, .0029722504169834526
.95308992296933193, .93056815579702623, .019855071751231912, .0010428584675646192
.95308992296933193, .93056815579702623, .025446043828620812, -.0026679135812885005
.95308992296933193, .93056815579702623, .033765242898423975, .0017649884521329102
.95308992296933193, .93056815579702623, .10166676129318652, .0022909740010489867
.95308992296933193, .93056815579702623, .12923440720030277, -.0057630614178073259
.95308992296933193, .93056815579702623, .16939530676686765, .0037165731621961176
.95308992296933193, .93056815579702623, .2372337950418355, .0032318123325089862
.95308992296933193, .93056815579702623, .29707742431130146, -.0078672421025171319
.95308992296933193, .93056815579702623, .38069040695840151, .0048204589994356303
.95308992296933193, .93056815579702623, .40828267875217505, .0037363758126420644
.95308992296933193, .93056815579702623, .5, -.0086116482518327226
.95308992296933193, .93056815579702623, .59171732124782495, .0037363758126420644
.95308992296933193, .93056815579702623, .61930959304159849, .0048204589994356303
.95308992296933193, .93056815579702623, .70292257568869854, -.0078672421025171319
.95308992296933193, .93056815579702623, .7627662049581645, .0032318123325089862
.95308992296933193, .93056815579702623, .83060469323313235, .0037165731621961176
.95308992296933193, .93056815579702623, .87076559279969723, -.0057630614178073259
.95308992296933193, .93056815579702623, .89833323870681348, .0022909740010489867
.95308992296933193, .93056815579702623, .96623475710157603, .0017649884521329102
.95308992296933193, .93056815579702623, .97455395617137919, -.0026679135812885005
.95308992296933193, .93056815579702623, .98014492824876809, .0010428584675646192
.95308992296933193, .93253168334449232, .21132486540518713, .0044261303277114234
.95308992296933193, .93253168334449232, .5, -.017704521310845694
.95308992296933193, .93253168334449232, .78867513459481287, .0044261303277114234
.95308992296933193, .94353129988404771, .5, .007438341440381184
.95308992296933193, .95308992296933193, .025446043828620812, .00090856928292030277
.95308992296933193, .95308992296933193, .033765242898423975, -.0024042972059725096
.95308992296933193, .95308992296933193, .046910077030668074, .0016624670525789674
.95308992296933193, .95308992296933193, .12923440720030277, .001962635003070081
.95308992296933193, .95308992296933193, .16939530676686765, -.0050627789994104992
.95308992296933193, .95308992296933193, .2307653449471585, .0033584385956713547
.95308992296933193, .95308992296933193, .29707742431130146, .0026792226576515367
.95308992296933193, .95308992296933193, .38069040695840151, -.0065665110102235214
.95308992296933193, .95308992296933193, .5, .0069245092474285782
.95308992296933193, .95308992296933193, .61930959304159849, -.0065665110102235214
.95308992296933193, .95308992296933193, .70292257568869854, .0026792226576515367
.95308992296933193, .95308992296933193, .7692346550528415, .0033584385956713547
.95308992296933193, .95308992296933193, .83060469323313235, -.0050627789994104992
.95308992296933193, .95308992296933193, .87076559279969723, .001962635003070081
.95308992296933193, .95308992296933193, .95308992296933193, .0016624670525789674
.95308992296933193, .95308992296933193, .96623475710157603, -.0024042972059725096
.95308992296933193, .95308992296933193, .97455395617137919, .00090856928292030277
.95308992296933193, .96623475710157603, .033765242898423975, .0008692871605605302
.95308992296933193, .96623475710157603, .046910077030668074, -.0024042972059725096
.95308992296933193, .96623475710157603, .069431844202973769, .0017649884521329102
.95308992296933193, .96623475710157603, .16939530676686765, .0018304761865590073
.95308992296933193, .96623475710157603, .2307653449471585, -.0048570493589492232
.95308992296933193, .96623475710157603, .33000947820757187, .0033089338370204894
.95308992296933193, .96623475710157603, .38069040695840151, .0023741589420338623
.95308992296933193, .96623475710157603, .5, -.0057729960267701328
.95308992296933193, .96623475710157603, .61930959304159849, .0023741589420338623
.95308992296933193, .96623475710157603, .66999052179242813, .0033089338370204894
.95308992296933193, .96623475710157603, .7692346550528415, -.0048570493589492232
.95308992296933193, .96623475710157603, .83060469323313235, .0018304761865590073
.95308992296933193, .96623475710157603, .93056815579702623, .0017649884521329102
.95308992296933193, .96623475710157603, .95308992296933193, -.0024042972059725096
.95308992296933193, .96623475710157603, .96623475710157603, .0008692871605605302
.95308992296933193, .97455395617137919, .046910077030668074, .00090856928292030277
.95308992296933193, .97455395617137919, .069431844202973769, -.0026679135812885
.95308992296933193, .97455395617137919, .1127016653792583, .0021304492844440356
.95308992296933193, .97455395617137919, .2307653449471585, .0018354493954436137
.95308992296933193, .97455395617137919, .33000947820757187, -.0050017038427100464
.95308992296933193, .97455395617137919, .5, .0055902989223811875
.95308992296933193, .97455395617137919, .66999052179242813, -.0050017038427100464
.95308992296933193, .97455395617137919, .7692346550528415, .0018354493954436137
.95308992296933193, .97455395617137919, .8872983346207417, .0021304492844440356
.95308992296933193, .97455395617137919, .93056815579702623, -.0026679135812885
.95308992296933193, .97455395617137919, .95308992296933193, .00090856928292030277
.95308992296933193, .98014492824876809, .069431844202973769, .001042858467564619
.95308992296933193, .98014492824876809, .1127016653792583, -.0033310780252880949
.95308992296933193, .98014492824876809, .21132486540518713, .0029979702227592923
.95308992296933193, .98014492824876809, .33000947820757187, .0019551117551946731
.95308992296933193, .98014492824876809, .5, -.0053297248404609796
.95308992296933193, .98014492824876809, .66999052179242813, .0019551117551946731
.95308992296933193, .98014492824876809, .78867513459481287, .0029979702227592923
.95308992296933193, .98014492824876809, .8872983346207417, -.0033310780252880949
.95308992296933193, .98014492824876809, .93056815579702623, .001042858467564619
.95308992296933193, .98408011975381304, .1127016653792583, .0013372283103717443
.95308992296933193, .98408011975381304, .21132486540518713, -.0048140219173382903
.95308992296933193, .98408011975381304, .5, .0069535872139330924
.95308992296933193, .98408011975381304, .78867513459481287, -.0048140219173382903
.95308992296933193, .98408011975381304, .8872983346207417, .0013372283103717443
.95308992296933193, .98695326425858587, .21132486540518713, .0019745292411956061
.95308992296933193, .98695326425858587, .5, -.0078981169647824243
.95308992296933193, .98695326425858587, .78867513459481287, .0019745292411956061
.95308992296933193, .98911432907302843, .5, .0032973450505938097
.95879919961148907, .1127016653792583, .5, .012794652755240108
.95879919961148907, .21132486540518713, .21132486540518713, .011515187479716124
.95879919961148907, .21132486540518713, .5, -.046060749918864496
.95879919961148907, .21132486540518713, .78867513459481287, .011515187479716124
.95879919961148907, .5, .1127016653792583, .012794652755240108
.95879919961148907, .5, .21132486540518713, -.046060749918864496
.95879919961148907, .5, .5, .087003638735633049
.95879919961148907, .5, .78867513459481287, -.046060749918864496
.95879919961148907, .5, .8872983346207417, .012794652755240108
.95879919961148907, .78867513459481287, .21132486540518713, .011515187479716124
.95879919961148907, .78867513459481287, .5, -.046060749918864496
.95879919961148907, .78867513459481287, .78867513459481287, .011515187479716124
.95879919961148907, .8872983346207417, .5, .012794652755240108
.96421744183178681, .21132486540518713, .5, .020039521789940198
.96421744183178681, .5, .21132486540518713, .020039521789940198
.96421744183178681, .5, .5, -.080158087159760791
.96421744183178681, .5, .78867513459481287, .020039521789940198
.96421744183178681, .78867513459481287, .5, .020039521789940198
.96623475710157603, .013046735741414128, .5, .0028556085549804396
.96623475710157603, .015919880246186957, .21132486540518713, .00174053666618411
.96623475710157603, .015919880246186957, .5, -.0069621466647364402
.96623475710157603, .015919880246186957, .78867513459481287, .00174053666618411
.96623475710157603, .019855071751231912, .1127016653792583, .0012043699718217674
.96623475710157603, .019855071751231912, .21132486540518713, -.0043357318985583733
.96623475710157603, .019855071751231912, .5, .0062627238534732109
.96623475710157603, .019855071751231912, .78867513459481287, -.0043357318985583733
.96623475710157603, .019855071751231912, .8872983346207417, .0012043699718217674
.96623475710157603, .025446043828620812, .069431844202973769, .00096459914187733444
.96623475710157603, .025446043828620812, .1127016653792583, -.0030811036249463481
.96623475710157603, .025446043828620812, .21132486540518713, .0027729932624517197
.96623475710157603, .025446043828620812, .33000947820757187, .0018083941205743854
.96623475710157603, .025446043828620812, .5, -.0049297657999141827
.96623475710157603, .025446043828620812, .66999052179242813, .0018083941205743854
.96623475710157603, .025446043828620812, .78867513459481287, .0027729932624517197
.96623475710157603, .025446043828620812, .8872983346207417, -.0030811036249463481
.96623475710157603, .025446043828620812, .93056815579702623, .00096459914187733444
.96623475710157603, .033765242898423975, .046910077030668074, .0008692871605605302
.96623475710157603, .033765242898423975, .069431844202973769, -.0025525659575953196
.96623475710157603, .033765242898423975, .1127016653792583, .0020383390061790357
.96623475710157603, .033765242898423975, .2307653449471585, .0017560934793980666
.96623475710157603, .033765242898423975, .33000947820757187, -.004785454464649226
.96623475710157603, .033765242898423975, .5, .0053486015522138273
.96623475710157603, .033765242898423975, .66999052179242813, -.004785454464649226
.96623475710157603, .033765242898423975, .7692346550528415, .0017560934793980666
.96623475710157603, .033765242898423975, .8872983346207417, .0020383390061790357
.96623475710157603, .033765242898423975, .93056815579702623, -.0025525659575953196
.96623475710157603, .033765242898423975, .95308992296933193, .0008692871605605302
.96623475710157603, .046910077030668074, .033765242898423975, .0008692871605605302
.96623475710157603, .046910077030668074, .046910077030668074, -.0024042972059725096
.96623475710157603, .046910077030668074, .069431844202973769, .0017649884521329102
.96623475710157603, .046910077030668074, .16939530676686765, .0018304761865590073
.96623475710157603, .046910077030668074, .2307653449471585, -.0048570493589492232
.96623475710157603, .046910077030668074, .33000947820757187, .0033089338370204894
.96623475710157603, .046910077030668074, .38069040695840151, .0023741589420338623
.96623475710157603, .046910077030668074, .5, -.0057729960267701328
.96623475710157603, .046910077030668074, .61930959304159849, .0023741589420338623
.96623475710157603, .046910077030668074, .66999052179242813, .0033089338370204894
.96623475710157603, .046910077030668074, .7692346550528415, -.0048570493589492232
.96623475710157603, .046910077030668074, .83060469323313235, .0018304761865590073
.96623475710157603, .046910077030668074, .93056815579702623, .0017649884521329102
.96623475710157603, .046910077030668074, .95308992296933193, -.0024042972059725096
.96623475710157603, .046910077030668074, .96623475710157603, .0008692871605605302
.96623475710157603, .067468316655507676, .5, .0064011691321511355
.96623475710157603, .069431844202973769, .025446043828620812, .00096459914187733455
.96623475710157603, .069431844202973769, .033765242898423975, -.00255256595759532
.96623475710157603, .069431844202973769, .046910077030668074, .0017649884521329102
.96623475710157603, .069431844202973769, .12923440720030277, .00208366722865083
.96623475710157603, .069431844202973769, .16939530676686765, -.0053749916161036776
.96623475710157603, .069431844202973769, .2307653449471585, .0035655475573858615
.96623475710157603, .069431844202973769, .29707742431130146, .0028444455750939999
.96623475710157603, .069431844202973769, .38069040695840151, -.0069714561175025815
.96623475710157603, .069431844202973769, .5, .0073515314721212862
.96623475710157603, .069431844202973769, .61930959304159849, -.0069714561175025815
.96623475710157603, .069431844202973769, .70292257568869854, .0028444455750939999
.96623475710157603, .069431844202973769, .7692346550528415, .0035655475573858615
.96623475710157603, .069431844202973769, .83060469323313235, -.0053749916161036776
.96623475710157603, .069431844202973769, .87076559279969723, .00208366722865083
.96623475710157603, .069431844202973769, .95308992296933193, .0017649884521329102
.96623475710157603, .069431844202973769, .96623475710157603, -.00255256595759532
.96623475710157603, .069431844202973769, .97455395617137919, .00096459914187733455
.96623475710157603, .081984446336682115, .21132486540518713, .0038686818037845373
.96623475710157603, .081984446336682115, .5, -.015474727215138149
.96623475710157603, .081984446336682115, .78867513459481287, .0038686818037845373
.96623475710157603, .10166676129318652, .1127016653792583, .0026457859612831901
.96623475710157603, .10166676129318652, .21132486540518713, -.0095248294606195064
.96623475710157603, .10166676129318652, .5, .013758086998672632
.96623475710157603, .10166676129318652, .78867513459481287, -.0095248294606195064
.96623475710157603, .10166676129318652, .8872983346207417, .0026457859612831901
.96623475710157603, .1127016653792583, .019855071751231912, .0012043699718217676
.96623475710157603, .1127016653792583, .025446043828620812, -.0030811036249463481
.96623475710157603, .1127016653792583, .033765242898423975, .0020383390061790357
.96623475710157603, .1127016653792583, .10166676129318652, .0026457859612831901
.96623475710157603, .1127016653792583, .12923440720030277, -.0066556089184188795
.96623475710157603, .1127016653792583, .16939530676686765, .004292173150859821
.96623475710157603, .1127016653792583, .2372337950418355, .0037323355459027408
.96623475710157603, .1127016653792583, .29707742431130146, -.0090856721635972811
.96623475710157603, .1127016653792583, .38069040695840151, .0055670220359586228
.96623475710157603, .1127016653792583, .40828267875217505, .0043150427139897803
.96623475710157603, .1127016653792583, .5, -.0099453673580649042
.96623475710157603, .1127016653792583, .59171732124782495, .0043150427139897803
.96623475710157603, .1127016653792583, .61930959304159849, .0055670220359586228
.96623475710157603, .1127016653792583, .70292257568869854, -.0090856721635972811
.96623475710157603, .1127016653792583, .7627662049581645, .0037323355459027408
.96623475710157603, .1127016653792583, .83060469323313235, .004292173150859821
.96623475710157603, .1127016653792583, .87076559279969723, -.0066556089184188795
.96623475710157603, .1127016653792583, .89833323870681348, .0026457859612831901
.96623475710157603, .1127016653792583, .96623475710157603, .0020383390061790357
.96623475710157603, .1127016653792583, .97455395617137919, -.0030811036249463481
.96623475710157603, .1127016653792583, .98014492824876809, .0012043699718217676
.96623475710157603, .12923440720030277, .069431844202973769, .00208366722865083
.96623475710157603, .12923440720030277, .1127016653792583, -.0066556089184188795
.96623475710157603, .12923440720030277, .21132486540518713, .0059900480265770058
.96623475710157603, .12923440720030277, .33000947820757187, .0039063807979261757
.96623475710157603, .12923440720030277, .5, -.010648974269470262
.96623475710157603, .12923440720030277, .66999052179242813, .0039063807979261757
.96623475710157603, .12923440720030277, .78867513459481287, .0059900480265770058
.96623475710157603, .12923440720030277, .8872983346207417, -.0066556089184188795
.96623475710157603, .12923440720030277, .93056815579702623, .00208366722865083
