.013046735741414128, .95308992296933193, .78867513459481287, -.0039490584823912538
.013046735741414128, .95308992296933193, .8872983346207417, .0010969606895531235
.013046735741414128, .96623475710157603, .21132486540518713, .001427804277490235
.013046735741414128, .96623475710157603, .5, -.0057112171099609399
.013046735741414128, .96623475710157603, .78867513459481287, .001427804277490235
.013046735741414128, .97455395617137919, .5, .0021582341905606764
.015919880246186957, .019855071751231912, .5, .0020568218429342171
.015919880246186957, .025446043828620812, .21132486540518713, .0013154764284241235
.015919880246186957, .025446043828620812, .5, -.0052619057136964941
.015919880246186957, .025446043828620812, .78867513459481287, .0013154764284241235
.015919880246186957, .033765242898423975, .1127016653792583, .0009669648145467359
.015919880246186957, .033765242898423975, .21132486540518713, -.0034810733323682574
.015919880246186957, .033765242898423975, .5, .005028217035643043
.015919880246186957, .033765242898423975, .78867513459481287, -.0034810733323682574
.015919880246186957, .033765242898423975, .8872983346207417, .0009669648145467359
.015919880246186957, .046910077030668074, .069431844202973769, .00083729042427200878
.015919880246186957, .046910077030668074, .1127016653792583, -.0026744566207435169
.015919880246186957, .046910077030668074, .21132486540518713, .0024070109586691707
.015919880246186957, .046910077030668074, .33000947820757187, .0015697205343971623
.015919880246186957, .046910077030668074, .5, -.0042791305931896492
.015919880246186957, .046910077030668074, .66999052179242813, .0015697205343971623
.015919880246186957, .046910077030668074, .78867513459481287, .0024070109586691707
.015919880246186957, .046910077030668074, .8872983346207417, -.0026744566207435169
.015919880246186957, .046910077030668074, .93056815579702623, .00083729042427200878
.015919880246186957, .069431844202973769, .046910077030668074, .00083729042427200888
.015919880246186957, .069431844202973769, .069431844202973769, -.0024586110673015644
.015919880246186957, .069431844202973769, .1127016653792583, .0019633117900802011
.015919880246186957, .069431844202973769, .2307653449471585, .0016914551613512886
.015919880246186957, .069431844202973769, .33000947820757187, -.0046093113769871755
.015919880246186957, .069431844202973769, .5, .0051517301371704826
.015919880246186957, .069431844202973769, .66999052179242813, -.0046093113769871755
.015919880246186957, .069431844202973769, .7692346550528415, .0016914551613512886
.015919880246186957, .069431844202973769, .8872983346207417, .0019633117900802011
.015919880246186957, .069431844202973769, .93056815579702623, -.0024586110673015644
.015919880246186957, .069431844202973769, .95308992296933193, .00083729042427200888
.015919880246186957, .10166676129318652, .5, .0045184706396028508
.015919880246186957, .1127016653792583, .033765242898423975, .00096696481454673579
.015919880246186957, .1127016653792583, .046910077030668074, -.0026744566207435169
.015919880246186957, .1127016653792583, .069431844202973769, .0019633117900802011
.015919880246186957, .1127016653792583, .16939530676686765, .0020361580690170535
.015919880246186957, .1127016653792583, .2307653449471585, -.0054028128398816311
.015919880246186957, .1127016653792583, .33000947820757187, .0036807429572510522
.015919880246186957, .1127016653792583, .38069040695840151, .0026409318637674638
.015919880246186957, .1127016653792583, .5, -.0064216800680747177
.015919880246186957, .1127016653792583, .61930959304159849, .0026409318637674638
.015919880246186957, .1127016653792583, .66999052179242813, .0036807429572510522
.015919880246186957, .1127016653792583, .7692346550528415, -.0054028128398816311
.015919880246186957, .1127016653792583, .83060469323313235, .0020361580690170535
.015919880246186957, .1127016653792583, .93056815579702623, .0019633117900802011
.015919880246186957, .1127016653792583, .95308992296933193, -.0026744566207435169
.015919880246186957, .1127016653792583, .96623475710157603, .00096696481454673579
.015919880246186957, .12923440720030277, .21132486540518713, .0028416105768405853
.015919880246186957, .12923440720030277, .5, -.011366442307362341
.015919880246186957, .12923440720030277, .78867513459481287, .0028416105768405853
.015919880246186957, .16939530676686765, .1127016653792583, .0020361580690170535
.015919880246186957, .16939530676686765, .21132486540518713, -.0073301690484614103
.015919880246186957, .16939530676686765, .5, .010588021958888713
.015919880246186957, .16939530676686765, .78867513459481287, -.0073301690484614103
.015919880246186957, .16939530676686765, .8872983346207417, .0020361580690170535
.015919880246186957, .21132486540518713, .025446043828620812, .0013154764284241235
.015919880246186957, .21132486540518713, .033765242898423975, -.0034810733323682574
.015919880246186957, .21132486540518713, .046910077030668074, .0024070109586691707
.015919880246186957, .21132486540518713, .12923440720030277, .0028416105768405853
.015919880246186957, .21132486540518713, .16939530676686765, -.0073301690484614103
.015919880246186957, .21132486540518713, .2307653449471585, .0048625315558934795
.015919880246186957, .21132486540518713, .29707742431130146, .0038791254766089062
.015919880246186957, .21132486540518713, .38069040695840151, -.0095073547095628937
.015919880246186957, .21132486540518713, .5, .010025684187912592
.015919880246186957, .21132486540518713, .61930959304159849, -.0095073547095628937
.015919880246186957, .21132486540518713, .70292257568869854, .0038791254766089062
.015919880246186957, .21132486540518713, .7692346550528415, .0048625315558934795
.015919880246186957, .21132486540518713, .83060469323313235, -.0073301690484614103
.015919880246186957, .21132486540518713, .87076559279969723, .0028416105768405853
.015919880246186957, .21132486540518713, .95308992296933193, .0024070109586691707
.015919880246186957, .21132486540518713, .96623475710157603, -.0034810733323682574
.015919880246186957, .21132486540518713, .97455395617137919, .0013154764284241235
.015919880246186957, .2307653449471585, .069431844202973769, .0016914551613512886
.015919880246186957, .2307653449471585, .1127016653792583, -.0054028128398816311
.015919880246186957, .2307653449471585, .21132486540518713, .0048625315558934795
.015919880246186957, .2307653449471585, .33000947820757187, .0031710763945421911
.015919880246186957, .2307653449471585, .5, -.0086445005438106556
.015919880246186957, .2307653449471585, .66999052179242813, .0031710763945421911
.015919880246186957, .2307653449471585, .78867513459481287, .0048625315558934795
.015919880246186957, .2307653449471585, .8872983346207417, -.0054028128398816311
.015919880246186957, .2307653449471585, .93056815579702623, .0016914551613512886
.015919880246186957, .2372337950418355, .5, .0063740789421712924
.015919880246186957, .29707742431130146, .21132486540518713, .0038791254766089062
.015919880246186957, .29707742431130146, .5, -.015516501906435625
.015919880246186957, .29707742431130146, .78867513459481287, .0038791254766089062
.015919880246186957, .33000947820757187, .046910077030668074, .0015697205343971623
.015919880246186957, .33000947820757187, .069431844202973769, -.0046093113769871755
.015919880246186957, .33000947820757187, .1127016653792583, .0036807429572510526
.015919880246186957, .33000947820757187, .2307653449471585, .0031710763945421911
.015919880246186957, .33000947820757187, .33000947820757187, -.0086413632691166448
.015919880246186957, .33000947820757187, .5, .0096582695198268297
.015919880246186957, .33000947820757187, .66999052179242813, -.0086413632691166448
.015919880246186957, .33000947820757187, .7692346550528415, .0031710763945421911
.015919880246186957, .33000947820757187, .8872983346207417, .0036807429572510526
.015919880246186957, .33000947820757187, .93056815579702623, -.0046093113769871755
.015919880246186957, .33000947820757187, .95308992296933193, .0015697205343971623
.015919880246186957, .38069040695840151, .1127016653792583, .0026409318637674642
.015919880246186957, .38069040695840151, .21132486540518713, -.0095073547095628937
.015919880246186957, .38069040695840151, .5, .01373284569159086
.015919880246186957, .38069040695840151, .78867513459481287, -.0095073547095628937
.015919880246186957, .38069040695840151, .8872983346207417, .0026409318637674642
.015919880246186957, .40828267875217505, .5, .0073692256656841971
.015919880246186957, .5, .019855071751231912, .0020568218429342171
.015919880246186957, .5, .025446043828620812, -.0052619057136964941
.015919880246186957, .5, .033765242898423975, .005028217035643043
.015919880246186957, .5, .046910077030668074, -.0042791305931896492
.015919880246186957, .5, .069431844202973769, .0051517301371704826
.015919880246186957, .5, .10166676129318652, .0045184706396028508
.015919880246186957, .5, .1127016653792583, -.0064216800680747185
.015919880246186957, .5, .12923440720030277, -.011366442307362341
.015919880246186957, .5, .16939530676686765, .010588021958888713
.015919880246186957, .5, .21132486540518713, .010025684187912592
.015919880246186957, .5, .2307653449471585, -.0086445005438106556
.015919880246186957, .5, .2372337950418355, .0063740789421712924
.015919880246186957, .5, .29707742431130146, -.015516501906435625
.015919880246186957, .5, .33000947820757187, .0096582695198268297
.015919880246186957, .5, .38069040695840151, .01373284569159086
.015919880246186957, .5, .40828267875217505, .0073692256656841971
.015919880246186957, .5, .5, -.054518753231001874
.015919880246186957, .5, .59171732124782495, .0073692256656841971
.015919880246186957, .5, .61930959304159849, .01373284569159086
.015919880246186957, .5, .66999052179242813, .0096582695198268297
.015919880246186957, .5, .70292257568869854, -.015516501906435625
.015919880246186957, .5, .7627662049581645, .0063740789421712924
.015919880246186957, .5, .7692346550528415, -.0086445005438106556
.015919880246186957, .5, .78867513459481287, .010025684187912592
.015919880246186957, .5, .83060469323313235, .010588021958888713
.015919880246186957, .5, .87076559279969723, -.011366442307362341
.015919880246186957, .5, .8872983346207417, -.0064216800680747185
.015919880246186957, .5, .89833323870681348, .0045184706396028508
.015919880246186957, .5, .93056815579702623, .0051517301371704826
.015919880246186957, .5, .95308992296933193, -.0042791305931896492
.015919880246186957, .5, .96623475710157603, .005028217035643043
.015919880246186957, .5, .97455395617137919, -.0052619057136964941
.015919880246186957, .5, .98014492824876809, .0020568218429342171
.015919880246186957, .59171732124782495, .5, .0073692256656841971
.015919880246186957, .61930959304159849, .1127016653792583, .0026409318637674642
.015919880246186957, .61930959304159849, .21132486540518713, -.0095073547095628937
.015919880246186957, .61930959304159849, .5, .01373284569159086
.015919880246186957, .61930959304159849, .78867513459481287, -.0095073547095628937
.015919880246186957, .61930959304159849, .8872983346207417, .0026409318637674642
.015919880246186957, .66999052179242813, .046910077030668074, .0015697205343971623
.015919880246186957, .66999052179242813, .069431844202973769, -.0046093113769871755
.015919880246186957, .66999052179242813, .1127016653792583, .0036807429572510526
.015919880246186957, .66999052179242813, .2307653449471585, .0031710763945421911
.015919880246186957, .66999052179242813, .33000947820757187, -.0086413632691166448
.015919880246186957, .66999052179242813, .5, .0096582695198268297
.015919880246186957, .66999052179242813, .66999052179242813, -.0086413632691166448
.015919880246186957, .66999052179242813, .7692346550528415, .0031710763945421911
.015919880246186957, .66999052179242813, .8872983346207417, .0036807429572510526
.015919880246186957, .66999052179242813, .93056815579702623, -.0046093113769871755
.015919880246186957, .66999052179242813, .95308992296933193, .0015697205343971623
.015919880246186957, .70292257568869854, .21132486540518713, .0038791254766089062
.015919880246186957, .70292257568869854, .5, -.015516501906435625
.015919880246186957, .70292257568869854, .78867513459481287, .0038791254766089062
.015919880246186957, .7627662049581645, .5, .0063740789421712924
.015919880246186957, .7692346550528415, .069431844202973769, .0016914551613512886
.015919880246186957, .7692346550528415, .1127016653792583, -.0054028128398816311
.015919880246186957, .7692346550528415, .21132486540518713, .0048625315558934795
.015919880246186957, .7692346550528415, .33000947820757187, .0031710763945421911
.015919880246186957, .7692346550528415, .5, -.0086445005438106556
.015919880246186957, .7692346550528415, .66999052179242813, .0031710763945421911
.015919880246186957, .7692346550528415, .78867513459481287, .0048625315558934795
.015919880246186957, .7692346550528415, .8872983346207417, -.0054028128398816311
.015919880246186957, .7692346550528415, .93056815579702623, .0016914551613512886
.015919880246186957, .78867513459481287, .025446043828620812, .0013154764284241235
.015919880246186957, .78867513459481287, .033765242898423975, -.0034810733323682574
.015919880246186957, .78867513459481287, .046910077030668074, .0024070109586691707
.015919880246186957, .78867513459481287, .12923440720030277, .0028416105768405853
.015919880246186957, .78867513459481287, .16939530676686765, -.0073301690484614103
.015919880246186957, .78867513459481287, .2307653449471585, .0048625315558934795
.015919880246186957, .78867513459481287, .29707742431130146, .0038791254766089062
.015919880246186957, .78867513459481287, .38069040695840151, -.0095073547095628937
.015919880246186957, .78867513459481287, .5, .010025684187912592
.015919880246186957, .78867513459481287, .61930959304159849, -.0095073547095628937
.015919880246186957, .78867513459481287, .70292257568869854, .0038791254766089062
.015919880246186957, .78867513459481287, .7692346550528415, .0048625315558934795
.015919880246186957, .78867513459481287, .83060469323313235, -.0073301690484614103
.015919880246186957, .78867513459481287, .87076559279969723, .0028416105768405853
.015919880246186957, .78867513459481287, .95308992296933193, .0024070109586691707
.015919880246186957, .78867513459481287, .96623475710157603, -.0034810733323682574
.015919880246186957, .78867513459481287, .97455395617137919, .0013154764284241235
.015919880246186957, .83060469323313235, .1127016653792583, .0020361580690170535
.015919880246186957, .83060469323313235, .21132486540518713, -.0073301690484614103
.015919880246186957, .83060469323313235, .5, .010588021958888713
.015919880246186957, .83060469323313235, .78867513459481287, -.0073301690484614103
.015919880246186957, .83060469323313235, .8872983346207417, .0020361580690170535
.015919880246186957, .87076559279969723, .21132486540518713, .0028416105768405853
.015919880246186957, .87076559279969723, .5, -.011366442307362341
.015919880246186957, .87076559279969723, .78867513459481287, .0028416105768405853
.015919880246186957, .8872983346207417, .033765242898423975, .00096696481454673579
.015919880246186957, .8872983346207417, .046910077030668074, -.0026744566207435169
.015919880246186957, .8872983346207417, .069431844202973769, .0019633117900802011
.015919880246186957, .8872983346207417, .16939530676686765, .0020361580690170535
.015919880246186957, .8872983346207417, .2307653449471585, -.0054028128398816311
.015919880246186957, .8872983346207417, .33000947820757187, .0036807429572510522
.015919880246186957, .8872983346207417, .38069040695840151, .0026409318637674638
.015919880246186957, .8872983346207417, .5, -.0064216800680747177
.015919880246186957, .8872983346207417, .61930959304159849, .0026409318637674638
.015919880246186957, .8872983346207417, .66999052179242813, .0036807429572510522
.015919880246186957, .8872983346207417, .7692346550528415, -.0054028128398816311
.015919880246186957, .8872983346207417, .83060469323313235, .0020361580690170535
.015919880246186957, .8872983346207417, .93056815579702623, .0019633117900802011
.015919880246186957, .8872983346207417, .95308992296933193, -.0026744566207435169
.015919880246186957, .8872983346207417, .96623475710157603, .00096696481454673579
.015919880246186957, .89833323870681348, .5, .0045184706396028508
.015919880246186957, .93056815579702623, .046910077030668074, .00083729042427200888
.015919880246186957, .93056815579702623, .069431844202973769, -.0024586110673015644
.015919880246186957, .93056815579702623, .1127016653792583, .0019633117900802011
.015919880246186957, .93056815579702623, .2307653449471585, .0016914551613512886
.015919880246186957, .93056815579702623, .33000947820757187, -.0046093113769871755
.015919880246186957, .93056815579702623, .5, .0051517301371704826
.015919880246186957, .93056815579702623, .66999052179242813, -.0046093113769871755
.015919880246186957, .93056815579702623, .7692346550528415, .0016914551613512886
.015919880246186957, .93056815579702623, .8872983346207417, .0019633117900802011
.015919880246186957, .93056815579702623, .93056815579702623, -.0024586110673015644
.015919880246186957, .93056815579702623, .95308992296933193, .00083729042427200888
.015919880246186957, .95308992296933193, .069431844202973769, .00083729042427200878
.015919880246186957, .95308992296933193, .1127016653792583, -.0026744566207435169
.015919880246186957, .95308992296933193, .21132486540518713, .0024070109586691707
.015919880246186957, .95308992296933193, .33000947820757187, .0015697205343971623
.015919880246186957, .95308992296933193, .5, -.0042791305931896492
.015919880246186957, .95308992296933193, .66999052179242813, .0015697205343971623
.015919880246186957, .95308992296933193, .78867513459481287, .0024070109586691707
.015919880246186957, .95308992296933193, .8872983346207417, -.0026744566207435169
.015919880246186957, .95308992296933193, .93056815579702623, .00083729042427200878
.015919880246186957, .96623475710157603, .1127016653792583, .0009669648145467359
.015919880246186957, .96623475710157603, .21132486540518713, -.0034810733323682574
.015919880246186957, .96623475710157603, .5, .005028217035643043
.015919880246186957, .96623475710157603, .78867513459481287, -.0034810733323682574
.015919880246186957, .96623475710157603, .8872983346207417, .0009669648145467359
.015919880246186957, .97455395617137919, .21132486540518713, .0013154764284241235
.015919880246186957, .97455395617137919, .5, -.0052619057136964941
.015919880246186957, .97455395617137919, .78867513459481287, .0013154764284241235
.015919880246186957, .98014492824876809, .5, .0020568218429342171
.019855071751231912, .015919880246186957, .5, .0020568218429342171
.019855071751231912, .019855071751231912, .21132486540518713, .0012809020699363705
.019855071751231912, .019855071751231912, .5, -.005123608279745482
.019855071751231912, .019855071751231912, .78867513459481287, .0012809020699363705
.019855071751231912, .025446043828620812, .1127016653792583, .00091024816645016041
.019855071751231912, .025446043828620812, .21132486540518713, -.0032768933992205853
.019855071751231912, .025446043828620812, .5, .0047332904655408492
.019855071751231912, .025446043828620812, .78867513459481287, -.0032768933992205853
.019855071751231912, .025446043828620812, .8872983346207417, .00091024816645016041
.019855071751231912, .033765242898423975, .069431844202973769, .00075410267406526984
.019855071751231912, .033765242898423975, .1127016653792583, -.0024087399436435604
.019855071751231912, .033765242898423975, .21132486540518713, .0021678659492792096
.019855071751231912, .033765242898423975, .33000947820757187, .0014137632752139397
.019855071751231912, .033765242898423975, .5, -.0038539839098297168
.019855071751231912, .033765242898423975, .66999052179242813, .0014137632752139397
.019855071751231912, .033765242898423975, .78867513459481287, .0021678659492792096
.019855071751231912, .033765242898423975, .8872983346207417, -.0024087399436435604
.019855071751231912, .033765242898423975, .93056815579702623, .00075410267406526984
.019855071751231912, .046910077030668074, .046910077030668074, .00071029974636955921
.019855071751231912, .046910077030668074, .069431844202973769, -.0020857169351292605
.019855071751231912, .046910077030668074, .1127016653792583, .001665539012644065
.019855071751231912, .046910077030668074, .2307653449471585, .0014349145019159953
.019855071751231912, .046910077030668074, .33000947820757187, -.0039102235103893879
.019855071751231912, .046910077030668074, .5, .0043703743691780577
.019855071751231912, .046910077030668074, .66999052179242813, -.0039102235103893879
.019855071751231912, .046910077030668074, .7692346550528415, .0014349145019159953
.019855071751231912, .046910077030668074, .8872983346207417, .001665539012644065
.019855071751231912, .046910077030668074, .93056815579702623, -.0020857169351292605
.019855071751231912, .046910077030668074, .95308992296933193, .00071029974636955921
.019855071751231912, .069431844202973769, .033765242898423975, .00075410267406526984
.019855071751231912, .069431844202973769, .046910077030668074, -.0020857169351292605
.019855071751231912, .069431844202973769, .069431844202973769, .0015311194871318588
.019855071751231912, .069431844202973769, .16939530676686765, .0015879298000983501
.019855071751231912, .069431844202973769, .2307653449471585, -.0042134683172921107
.019855071751231912, .069431844202973769, .33000947820757187, .0028704851147153846
.019855071751231912, .069431844202973769, .38069040695840151, .0020595721276836245
.019855071751231912, .069431844202973769, .5, -.0050080479025462346
.019855071751231912, .069431844202973769, .61930959304159849, .0020595721276836245
.019855071751231912, .069431844202973769, .66999052179242813, .0028704851147153846
.019855071751231912, .069431844202973769, .7692346550528415, -.0042134683172921107
.019855071751231912, .069431844202973769, .83060469323313235, .0015879298000983501
.019855071751231912, .069431844202973769, .93056815579702623, .0015311194871318588
.019855071751231912, .069431844202973769, .95308992296933193, -.0020857169351292605
.019855071751231912, .069431844202973769, .96623475710157603, .00075410267406526984
.019855071751231912, .081984446336682115, .5, .0045716872226720957
.019855071751231912, .10166676129318652, .21132486540518713, .0028139133270567449
.019855071751231912, .10166676129318652, .5, -.01125565330822698
.019855071751231912, .10166676129318652, .78867513459481287, .0028139133270567449
.019855071751231912, .1127016653792583, .025446043828620812, .00091024816645016041
.019855071751231912, .1127016653792583, .033765242898423975, -.0024087399436435604
.019855071751231912, .1127016653792583, .046910077030668074, .001665539012644065
.019855071751231912, .1127016653792583, .12923440720030277, .0019662616231239586
.019855071751231912, .1127016653792583, .16939530676686765, -.0050721341652049
.019855071751231912, .1127016653792583, .2307653449471585, .003364644426476231
.019855071751231912, .1127016653792583, .29707742431130146, .0026841734114105621
.019855071751231912, .1127016653792583, .38069040695840151, -.0065786448203697979
.019855071751231912, .1127016653792583, .5, .0069373045782265656
.019855071751231912, .1127016653792583, .61930959304159849, -.0065786448203697979
.019855071751231912, .1127016653792583, .70292257568869854, .0026841734114105621
.019855071751231912, .1127016653792583, .7692346550528415, .003364644426476231
.019855071751231912, .1127016653792583, .83060469323313235, -.0050721341652049
.019855071751231912, .1127016653792583, .87076559279969723, .0019662616231239586
.019855071751231912, .1127016653792583, .95308992296933193, .001665539012644065
.019855071751231912, .1127016653792583, .96623475710157603, -.0024087399436435604
.019855071751231912, .1127016653792583, .97455395617137919, .00091024816645016041
.019855071751231912, .12923440720030277, .1127016653792583, .0019662616231239586
.019855071751231912, .12923440720030277, .21132486540518713, -.0070785418432462678
.019855071751231912, .12923440720030277, .5, .010224560440244617
.019855071751231912, .12923440720030277, .78867513459481287, -.0070785418432462678
.019855071751231912, .12923440720030277, .8872983346207417, .0019662616231239586
.019855071751231912, .16939530676686765, .069431844202973769, .0015879298000983501
.019855071751231912, .16939530676686765, .1127016653792583, -.0050721341652049
.019855071751231912, .16939530676686765, .21132486540518713, .004564920748684421
.019855071751231912, .16939530676686765, .33000947820757187, .0029769909485860709
.019855071751231912, .16939530676686765, .5, -.0081154146643278822
.019855071751231912, .16939530676686765, .66999052179242813, .0029769909485860709
.019855071751231912, .16939530676686765, .78867513459481287, .004564920748684421
.019855071751231912, .16939530676686765, .8872983346207417, -.0050721341652049
.019855071751231912, .16939530676686765, .93056815579702623, .0015879298000983501
.019855071751231912, .19331428364970482, .5, .0065953098346209337
.019855071751231912, .21132486540518713, .019855071751231912, .0012809020699363705
.019855071751231912, .21132486540518713, .025446043828620812, -.0032768933992205853
.019855071751231912, .21132486540518713, .033765242898423975, .0021678659492792096
.019855071751231912, .21132486540518713, .10166676129318652, .0028139133270567449
.019855071751231912, .21132486540518713, .12923440720030277, -.0070785418432462678
.019855071751231912, .21132486540518713, .16939530676686765, .004564920748684421
.019855071751231912, .21132486540518713, .2372337950418355, .0039695080733475885
.019855071751231912, .21132486540518713, .29707742431130146, -.0096630242810780455
.019855071751231912, .21132486540518713, .38069040695840151, .0059207803383328319
.019855071751231912, .21132486540518713, .40828267875217505, .0045892435659557569
.019855071751231912, .21132486540518713, .5, -.010577349098096059
.019855071751231912, .21132486540518713, .59171732124782495, .0045892435659557569
.019855071751231912, .21132486540518713, .61930959304159849, .0059207803383328319
.019855071751231912, .21132486540518713, .70292257568869854, -.0096630242810780455
.019855071751231912, .21132486540518713, .7627662049581645, .0039695080733475885
.019855071751231912, .21132486540518713, .83060469323313235, .004564920748684421
.019855071751231912, .21132486540518713, .87076559279969723, -.0070785418432462678
.019855071751231912, .21132486540518713, .89833323870681348, .0028139133270567449
.019855071751231912, .21132486540518713, .96623475710157603, .0021678659492792096
.019855071751231912, .21132486540518713, .97455395617137919, -.0032768933992205853
.019855071751231912, .21132486540518713, .98014492824876809, .0012809020699363705
.019855071751231912, .2307653449471585, .046910077030668074, .0014349145019159953
.019855071751231912, .2307653449471585, .069431844202973769, -.0042134683172921107
.019855071751231912, .2307653449471585, .1127016653792583, .003364644426476231
.019855071751231912, .2307653449471585, .2307653449471585, .0028987475193853873
.019855071751231912, .2307653449471585, .33000947820757187, -.0078992516180223481
.019855071751231912, .2307653449471585, .5, .0088288269750736899
.019855071751231912, .2307653449471585, .66999052179242813, -.0078992516180223481
.019855071751231912, .2307653449471585, .7692346550528415, .0028987475193853873
.019855071751231912, .2307653449471585, .8872983346207417, .003364644426476231
.019855071751231912, .2307653449471585, .93056815579702623, -.0042134683172921107
.019855071751231912, .2307653449471585, .95308992296933193, .0014349145019159953
.019855071751231912, .2372337950418355, .21132486540518713, .0039695080733475885
.019855071751231912, .2372337950418355, .5, -.015878032293390354
.019855071751231912, .2372337950418355, .78867513459481287, .0039695080733475885
.019855071751231912, .29707742431130146, .1127016653792583, .0026841734114105616
.019855071751231912, .29707742431130146, .21132486540518713, -.0096630242810780455
.019855071751231912, .29707742431130146, .5, .013957701739334964
.019855071751231912, .29707742431130146, .78867513459481287, -.0096630242810780455
.019855071751231912, .29707742431130146, .8872983346207417, .0026841734114105616
.019855071751231912, .33000947820757187, .033765242898423975, .0014137632752139397
.019855071751231912, .33000947820757187, .046910077030668074, -.0039102235103893879
.019855071751231912, .33000947820757187, .069431844202973769, .0028704851147153846
.019855071751231912, .33000947820757187, .16939530676686765, .0029769909485860705
.019855071751231912, .33000947820757187, .2307653449471585, -.0078992516180223481
.019855071751231912, .33000947820757187, .33000947820757187, .0053814773197338323
.019855071751231912, .33000947820757187, .38069040695840151, .0038612082106492078
.019855071751231912, .33000947820757187, .5, -.0093888994809734026
.019855071751231912, .33000947820757187, .61930959304159849, .0038612082106492078
.019855071751231912, .33000947820757187, .66999052179242813, .0053814773197338323
.019855071751231912, .33000947820757187, .7692346550528415, -.0078992516180223481
.019855071751231912, .33000947820757187, .83060469323313235, .0029769909485860705
.019855071751231912, .33000947820757187, .93056815579702623, .0028704851147153846
.019855071751231912, .33000947820757187, .95308992296933193, -.0039102235103893879
.019855071751231912, .33000947820757187, .96623475710157603, .0014137632752139397
.019855071751231912, .33787328829809549, .5, .0079046093558339057
.019855071751231912, .38069040695840151, .069431844202973769, .0020595721276836245
.019855071751231912, .38069040695840151, .1127016653792583, -.0065786448203697979
.019855071751231912, .38069040695840151, .21132486540518713, .0059207803383328319
.019855071751231912, .38069040695840151, .33000947820757187, .0038612082106492078
.019855071751231912, .38069040695840151, .5, -.010525831712591732
.019855071751231912, .38069040695840151, .66999052179242813, .0038612082106492078
.019855071751231912, .38069040695840151, .78867513459481287, .0059207803383328319
.019855071751231912, .38069040695840151, .8872983346207417, -.0065786448203697979
.019855071751231912, .38069040695840151, .93056815579702623, .0020595721276836245
.019855071751231912, .40828267875217505, .21132486540518713, .0045892435659557569
.019855071751231912, .40828267875217505, .5, -.018356974263823028
.019855071751231912, .40828267875217505, .78867513459481287, .0045892435659557569
.019855071751231912, .5, .015919880246186957, .0020568218429342171
.019855071751231912, .5, .019855071751231912, -.005123608279745482
.019855071751231912, .5, .025446043828620812, .0047332904655408492
.019855071751231912, .5, .033765242898423975, -.0038539839098297168
.019855071751231912, .5, .046910077030668074, .0043703743691780577
.019855071751231912, .5, .069431844202973769, -.0050080479025462346
.019855071751231912, .5, .081984446336682115, .0045716872226720957
.019855071751231912, .5, .10166676129318652, -.01125565330822698
.019855071751231912, .5, .1127016653792583, .0069373045782265665
.019855071751231912, .5, .12923440720030277, .010224560440244617
.019855071751231912, .5, .16939530676686765, -.0081154146643278822
.019855071751231912, .5, .19331428364970482, .0065953098346209337
.019855071751231912, .5, .21132486540518713, -.010577349098096059
.019855071751231912, .5, .2307653449471585, .0088288269750736899
.019855071751231912, .5, .2372337950418355, -.015878032293390354
.019855071751231912, .5, .29707742431130146, .013957701739334964
.019855071751231912, .5, .33000947820757187, -.0093888994809734026
.019855071751231912, .5, .33787328829809549, .0079046093558339057
.019855071751231912, .5, .38069040695840151, -.010525831712591732
.019855071751231912, .5, .40828267875217505, -.018356974263823028
.019855071751231912, .5, .5, .064164027812845484
.019855071751231912, .5, .59171732124782495, -.018356974263823028
.019855071751231912, .5, .61930959304159849, -.010525831712591732
.019855071751231912, .5, .66212671170190451, .0079046093558339057
.019855071751231912, .5, .66999052179242813, -.0093888994809734026
.019855071751231912, .5, .70292257568869854, .013957701739334964
.019855071751231912, .5, .7627662049581645, -.015878032293390354
.019855071751231912, .5, .7692346550528415, .0088288269750736899
.019855071751231912, .5, .78867513459481287, -.010577349098096059
.019855071751231912, .5, .80668571635029518, .0065953098346209337
.019855071751231912, .5, .83060469323313235, -.0081154146643278822
.019855071751231912, .5, .87076559279969723, .010224560440244617
.019855071751231912, .5, .8872983346207417, .0069373045782265665
.019855071751231912, .5, .89833323870681348, -.01125565330822698
.019855071751231912, .5, .91801555366331788, .0045716872226720957
.019855071751231912, .5, .93056815579702623, -.0050080479025462346
.019855071751231912, .5, .95308992296933193, .0043703743691780577
.019855071751231912, .5, .96623475710157603, -.0038539839098297168
.019855071751231912, .5, .97455395617137919, .0047332904655408492
.019855071751231912, .5, .98014492824876809, -.005123608279745482
.019855071751231912, .5, .98408011975381304, .0020568218429342171
.019855071751231912, .59171732124782495, .21132486540518713, .0045892435659557569
.019855071751231912, .59171732124782495, .5, -.018356974263823028
.019855071751231912, .59171732124782495, .78867513459481287, .0045892435659557569
.019855071751231912, .61930959304159849, .069431844202973769, .0020595721276836245
.019855071751231912, .61930959304159849, .1127016653792583, -.0065786448203697979
.019855071751231912, .61930959304159849, .21132486540518713, .0059207803383328319
.019855071751231912, .61930959304159849, .33000947820757187, .0038612082106492078
.019855071751231912, .61930959304159849, .5, -.010525831712591732
.019855071751231912, .61930959304159849, .66999052179242813, .0038612082106492078
.019855071751231912, .61930959304159849, .78867513459481287, .0059207803383328319
.019855071751231912, .61930959304159849, .8872983346207417, -.0065786448203697979
.019855071751231912, .61930959304159849, .93056815579702623, .0020595721276836245
.019855071751231912, .66212671170190451, .5, .0079046093558339057
.019855071751231912, .66999052179242813, .033765242898423975, .0014137632752139397
.019855071751231912, .66999052179242813, .046910077030668074, -.0039102235103893879
.019855071751231912, .66999052179242813, .069431844202973769, .0028704851147153846
.019855071751231912, .66999052179242813, .16939530676686765, .0029769909485860705
.019855071751231912, .66999052179242813, .2307653449471585, -.0078992516180223481
.019855071751231912, .66999052179242813, .33000947820757187, .0053814773197338323
.019855071751231912, .66999052179242813, .38069040695840151, .0038612082106492078
.019855071751231912, .66999052179242813, .5, -.0093888994809734026
.019855071751231912, .66999052179242813, .61930959304159849, .0038612082106492078
.019855071751231912, .66999052179242813, .66999052179242813, .0053814773197338323
.019855071751231912, .66999052179242813, .7692346550528415, -.0078992516180223481
.019855071751231912, .66999052179242813, .83060469323313235, .0029769909485860705
.019855071751231912, .66999052179242813, .93056815579702623, .0028704851147153846
.019855071751231912, .66999052179242813, .95308992296933193, -.0039102235103893879
.019855071751231912, .66999052179242813, .96623475710157603, .0014137632752139397
.019855071751231912, .70292257568869854, .1127016653792583, .0026841734114105616
.019855071751231912, .70292257568869854, .21132486540518713, -.0096630242810780455
.019855071751231912, .70292257568869854, .5, .013957701739334964
.019855071751231912, .70292257568869854, .78867513459481287, -.0096630242810780455
.019855071751231912, .70292257568869854, .8872983346207417, .0026841734114105616
.019855071751231912, .7627662049581645, .21132486540518713, .0039695080733475885
.019855071751231912, .7627662049581645, .5, -.015878032293390354
.019855071751231912, .7627662049581645, .78867513459481287, .0039695080733475885
.019855071751231912, .7692346550528415, .046910077030668074, .0014349145019159953
.019855071751231912, .7692346550528415, .069431844202973769, -.0042134683172921107
.019855071751231912, .7692346550528415, .1127016653792583, .003364644426476231
.019855071751231912, .7692346550528415, .2307653449471585, .0028987475193853873
.019855071751231912, .7692346550528415, .33000947820757187, -.0078992516180223481
.019855071751231912, .7692346550528415, .5, .0088288269750736899
.019855071751231912, .7692346550528415, .66999052179242813, -.0078992516180223481
.019855071751231912, .7692346550528415, .7692346550528415, .0028987475193853873
.019855071751231912, .7692346550528415, .8872983346207417, .003364644426476231
.019855071751231912, .7692346550528415, .93056815579702623, -.0042134683172921107
.019855071751231912, .7692346550528415, .95308992296933193, .0014349145019159953
.019855071751231912, .78867513459481287, .019855071751231912, .0012809020699363705
.019855071751231912, .78867513459481287, .025446043828620812, -.0032768933992205853
.019855071751231912, .78867513459481287, .033765242898423975, .0021678659492792096
.019855071751231912, .78867513459481287, .10166676129318652, .0028139133270567449
.019855071751231912, .78867513459481287, .12923440720030277, -.0070785418432462678
.019855071751231912, .78867513459481287, .16939530676686765, .004564920748684421
.019855071751231912, .78867513459481287, .2372337950418355, .0039695080733475885
.019855071751231912, .78867513459481287, .29707742431130146, -.0096630242810780455
.019855071751231912, .78867513459481287, .38069040695840151, .0059207803383328319
.019855071751231912, .78867513459481287, .40828267875217505, .0045892435659557569
.019855071751231912, .78867513459481287, .5, -.010577349098096059
.019855071751231912, .78867513459481287, .59171732124782495, .0045892435659557569
.019855071751231912, .78867513459481287, .61930959304159849, .0059207803383328319
.019855071751231912, .78867513459481287, .70292257568869854, -.0096630242810780455
.019855071751231912, .78867513459481287, .7627662049581645, .0039695080733475885
.019855071751231912, .78867513459481287, .83060469323313235, .004564920748684421
.019855071751231912, .78867513459481287, .87076559279969723, -.0070785418432462678
.019855071751231912, .78867513459481287, .89833323870681348, .0028139133270567449
.019855071751231912, .78867513459481287, .96623475710157603, .0021678659492792096
.019855071751231912, .78867513459481287, .97455395617137919, -.0032768933992205853
.019855071751231912, .78867513459481287, .98014492824876809, .0012809020699363705
.019855071751231912, .80668571635029518, .5, .0065953098346209337
.019855071751231912, .83060469323313235, .069431844202973769, .0015879298000983501
.019855071751231912, .83060469323313235, .1127016653792583, -.0050721341652049
.019855071751231912, .83060469323313235, .21132486540518713, .004564920748684421
.019855071751231912, .83060469323313235, .33000947820757187, .0029769909485860709
.019855071751231912, .83060469323313235, .5, -.0081154146643278822
.019855071751231912, .83060469323313235, .66999052179242813, .0029769909485860709
.019855071751231912, .83060469323313235, .78867513459481287, .004564920748684421
.019855071751231912, .83060469323313235, .8872983346207417, -.0050721341652049
.019855071751231912, .83060469323313235, .93056815579702623, .0015879298000983501
.019855071751231912, .87076559279969723, .1127016653792583, .0019662616231239586
.019855071751231912, .87076559279969723, .21132486540518713, -.0070785418432462678
.019855071751231912, .87076559279969723, .5, .010224560440244617
.019855071751231912, .87076559279969723, .78867513459481287, -.0070785418432462678
.019855071751231912, .87076559279969723, .8872983346207417, .0019662616231239586
.019855071751231912, .8872983346207417, .025446043828620812, .00091024816645016041
.019855071751231912, .8872983346207417, .033765242898423975, -.0024087399436435604
.019855071751231912, .8872983346207417, .046910077030668074, .001665539012644065
.019855071751231912, .8872983346207417, .12923440720030277, .0019662616231239586
.019855071751231912, .8872983346207417, .16939530676686765, -.0050721341652049
.019855071751231912, .8872983346207417, .2307653449471585, .003364644426476231
.019855071751231912, .8872983346207417, .29707742431130146, .0026841734114105621
.019855071751231912, .8872983346207417, .38069040695840151, -.0065786448203697979
.019855071751231912, .8872983346207417, .5, .0069373045782265656
.019855071751231912, .8872983346207417, .61930959304159849, -.0065786448203697979
.019855071751231912, .8872983346207417, .70292257568869854, .0026841734114105621
.019855071751231912, .8872983346207417, .7692346550528415, .003364644426476231
.019855071751231912, .8872983346207417, .83060469323313235, -.0050721341652049
.019855071751231912, .8872983346207417, .87076559279969723, .0019662616231239586
.019855071751231912, .8872983346207417, .95308992296933193, .001665539012644065
.019855071751231912, .8872983346207417, .96623475710157603, -.0024087399436435604
.019855071751231912, .8872983346207417, .97455395617137919, .00091024816645016041
.019855071751231912, .89833323870681348, .21132486540518713, .0028139133270567449
.019855071751231912, .89833323870681348, .5, -.01125565330822698
.019855071751231912, .89833323870681348, .78867513459481287, .0028139133270567449
.019855071751231912, .91801555366331788, .5, .0045716872226720957
.019855071751231912, .93056815579702623, .033765242898423975, .00075410267406526984
.019855071751231912, .93056815579702623, .046910077030668074, -.0020857169351292605
.019855071751231912, .93056815579702623, .069431844202973769, .0015311194871318588
.019855071751231912, .93056815579702623, .16939530676686765, .0015879298000983501
.019855071751231912, .93056815579702623, .2307653449471585, -.0042134683172921107
.019855071751231912, .93056815579702623, .33000947820757187, .0028704851147153846
.019855071751231912, .93056815579702623, .38069040695840151, .0020595721276836245
.019855071751231912, .93056815579702623, .5, -.0050080479025462346
.019855071751231912, .93056815579702623, .61930959304159849, .0020595721276836245
.019855071751231912, .93056815579702623, .66999052179242813, .0028704851147153846
.019855071751231912, .93056815579702623, .7692346550528415, -.0042134683172921107
.019855071751231912, .93056815579702623, .83060469323313235, .0015879298000983501
.019855071751231912, .93056815579702623, .93056815579702623, .0015311194871318588
.019855071751231912, .93056815579702623, .95308992296933193, -.0020857169351292605
.019855071751231912, .93056815579702623, .96623475710157603, .00075410267406526984
.019855071751231912, .95308992296933193, .046910077030668074, .00071029974636955921
.019855071751231912, .95308992296933193, .069431844202973769, -.0020857169351292605
.019855071751231912, .95308992296933193, .1127016653792583, .001665539012644065
.019855071751231912, .95308992296933193, .2307653449471585, .0014349145019159953
.019855071751231912, .95308992296933193, .33000947820757187, -.0039102235103893879
.019855071751231912, .95308992296933193, .5, .0043703743691780577
.019855071751231912, .95308992296933193, .66999052179242813, -.0039102235103893879
.019855071751231912, .95308992296933193, .7692346550528415, .0014349145019159953
.019855071751231912, .95308992296933193, .8872983346207417, .001665539012644065
.019855071751231912, .95308992296933193, .93056815579702623, -.0020857169351292605
.019855071751231912, .95308992296933193, .95308992296933193, .00071029974636955921
.019855071751231912, .96623475710157603, .069431844202973769, .00075410267406526984
.019855071751231912, .96623475710157603, .1127016653792583, -.0024087399436435604
.019855071751231912, .96623475710157603, .21132486540518713, .0021678659492792096
.019855071751231912, .96623475710157603, .33000947820757187, .0014137632752139397
.019855071751231912, .96623475710157603, .5, -.0038539839098297168
.019855071751231912, .96623475710157603, .66999052179242813, .0014137632752139397
.019855071751231912, .96623475710157603, .78867513459481287, .0021678659492792096
.019855071751231912, .96623475710157603, .8872983346207417, -.0024087399436435604
.019855071751231912, .96623475710157603, .93056815579702623, .00075410267406526984
.019855071751231912, .97455395617137919, .1127016653792583, .00091024816645016041
.019855071751231912, .97455395617137919, .21132486540518713, -.0032768933992205853
.019855071751231912, .97455395617137919, .5, .0047332904655408492
.019855071751231912, .97455395617137919, .78867513459481287, -.0032768933992205853
.019855071751231912, .97455395617137919, .8872983346207417, .00091024816645016041
.019855071751231912, .98014492824876809, .21132486540518713, .0012809020699363705
.019855071751231912, .98014492824876809, .5, -.005123608279745482
.019855071751231912, .98014492824876809, .78867513459481287, .0012809020699363705
.019855071751231912, .98408011975381304, .5, .0020568218429342171
.025446043828620812, .013046735741414128, .5, .0021582341905606764
.025446043828620812, .015919880246186957, .21132486540518713, .0013154764284241235
.025446043828620812, .015919880246186957, .5, -.0052619057136964941
.025446043828620812, .015919880246186957, .78867513459481287, .0013154764284241235
.025446043828620812, .019855071751231912, .1127016653792583, .00091024816645016041
.025446043828620812, .019855071751231912, .21132486540518713, -.0032768933992205853
.025446043828620812, .019855071751231912, .5, .0047332904655408492
.025446043828620812, .019855071751231912, .78867513459481287, -.0032768933992205853
.025446043828620812, .019855071751231912, .8872983346207417, .00091024816645016041
.025446043828620812, .025446043828620812, .069431844202973769, .00072903229140221292
.025446043828620812, .025446043828620812, .1127016653792583, -.0023286606199655392
.025446043828620812, .025446043828620812, .21132486540518713, .0020957945579689902
.025446043828620812, .025446043828620812, .33000947820757187, .0013667622665667772
.025446043828620812, .025446043828620812, .5, -.0037258569919448822
.025446043828620812, .025446043828620812, .66999052179242813, .0013667622665667772
.025446043828620812, .025446043828620812, .78867513459481287, .0020957945579689902
.025446043828620812, .025446043828620812, .8872983346207417, -.0023286606199655392
.025446043828620812, .025446043828620812, .93056815579702623, .00072903229140221292
.025446043828620812, .033765242898423975, .046910077030668074, .0006569966559544769
.025446043828620812, .033765242898423975, .069431844202973769, -.0019291982837546895
.025446043828620812, .033765242898423975, .1127016653792583, .0015405518124731905
.025446043828620812, .033765242898423975, .2307653449471585, .0013272340785109916
.025446043828620812, .033765242898423975, .33000947820757187, -.0036167882411488094
.025446043828620812, .033765242898423975, .5, .0040424079559296805
.025446043828620812, .033765242898423975, .66999052179242813, -.0036167882411488094
.025446043828620812, .033765242898423975, .7692346550528415, .0013272340785109916
.025446043828620812, .033765242898423975, .8872983346207417, .0015405518124731905
.025446043828620812, .033765242898423975, .93056815579702623, -.0019291982837546895
.025446043828620812, .033765242898423975, .95308992296933193, .0006569966559544769
.025446043828620812, .046910077030668074, .033765242898423975, .0006569966559544769
.025446043828620812, .046910077030668074, .046910077030668074, -.001817138565840625
